# .PCD v0.7 - Point Cloud Data file format
VERSION 0.7
FIELDS x y z
SIZE 4 4 4
TYPE F F F
COUNT 1 1 1
WIDTH 216
HEIGHT 1
VIEWPOINT 0 0 0 1 0 0 0
POINTS 216
DATA ascii
-1.2313523 -0.36635551 2.697
-1.2428341 -0.37786609 2.7049999
-1.2336351 -0.36182851 2.7019999
-1.2368312 -0.34710696 2.7090001
-1.2653108 -0.48893833 2.714
-1.222945 -0.46784875 2.7130001
-1.3673736 -0.40601638 2.7190001
-1.3596197 -0.40526974 2.714
-1.2505136 -0.38463584 2.7160001
-1.261 -0.3794027 2.7160001
-1.254832 -0.3791233 2.714
-1.2377442 -0.37348074 2.711
-1.2386572 -0.35546243 2.7129998
-1.2413968 -0.32219365 2.7190001
-1.2663393 -0.49399757 2.7275
-1.3882076 -0.48375338 2.7290001
-1.3882076 -0.47586611 2.7290001
-1.2345203 -0.47551733 2.727
-1.2235425 -0.47009057 2.7260001
-1.2313514 -0.46905589 2.72
-1.3618659 -0.40750965 2.7290001
-1.2783272 -0.38591039 2.7249999
-1.2546515 -0.38591039 2.7249999
-1.2450492 -0.3809393 2.727
-1.2425381 -0.33559874 2.7214999
-1.2450492 -0.32839596 2.727
-1.2427664 -0.30681503 2.7219999
-1.3902423 -0.49236128 2.733
-1.385473 -0.4846397 2.734
-1.2751013 -0.48745182 2.7349999
-1.2669502 -0.48736271 2.7344999
-1.2561622 -0.4872736 2.734
-1.3865541 -0.47299615 2.7326667
-1.2429671 -0.47147012 2.734
-1.2218552 -0.47410405 2.734
-1.2139381 -0.47410405 2.734
-1.2033823 -0.47410405 2.734
-1.1954652 -0.47673795 2.734
-1.390751 -0.46356839 2.734
-1.3837137 -0.46269044 2.734
-1.374917 -0.46093449 2.734
-1.369639 -0.46093449 2.734
-1.2324111 -0.46356839 2.734
-1.2244942 -0.46356839 2.734
-1.2139382 -0.46356839 2.734
-1.2033823 -0.46356839 2.734
-1.380195 -0.45566666 2.734
-1.3761742 -0.4534446 2.7365
-1.3676238 -0.45324108 2.73525
-1.3590829 -0.45039883 2.734
-1.2324111 -0.45566666 2.734
-1.2244942 -0.45566666 2.734
-1.2139382 -0.45566666 2.734
-1.2033823 -0.45566666 2.734
-1.3721439 -0.44594511 2.7390001
-1.3668562 -0.44594511 2.7390001
-1.3590829 -0.445131 2.734
-1.380195 -0.43459538 2.734
-1.374917 -0.43722928 2.734
-1.367 -0.43722928 2.734
-1.3590829 -0.43722928 2.734
-1.380195 -0.42932755 2.734
-1.374917 -0.42669362 2.734
-1.367 -0.42669365 2.734
-1.3590829 -0.42669362 2.734
-1.374917 -0.41615799 2.734
-1.367 -0.41615802 2.734
-1.3590829 -0.41615799 2.734
-1.3739113 -0.40269366 2.7320001
-1.3662496 -0.40276736 2.7325001
-1.3590829 -0.40562236 2.734
-1.3721439 -0.39844799 2.7390001
-1.2813176 -0.39288342 2.737
-1.273392 -0.39288342 2.737
-1.2663909 -0.39317054 2.7390001
-1.2558156 -0.39317054 2.7390001
-1.2746351 -0.38718498 2.734
-1.2693571 -0.38718498 2.734
-1.2491584 -0.38746822 2.7360001
-1.2665117 -0.48394507 2.7449999
-1.2556849 -0.48385692 2.7444999
-1.2461495 -0.48323986 2.7409999
-1.2514411 -0.47267726 2.7409999
-1.2326955 -0.47787139 2.7405
-1.2011496 -0.47371194 2.747
-1.2408581 -0.4647553 2.7409999
-1.2011496 -0.46577263 2.747
-1.2408581 -0.45683333 2.7409999
-1.2055712 -0.45397529 2.7450001
-1.392821 -0.43425289 2.7484999
-1.3713474 -0.39975721 2.7479999
-1.2903619 -0.39403176 2.7449999
-1.262024 -0.39345759 2.7409999
-1.2550937 -0.39460599 2.7490001
-1.2495594 -0.38659102 2.7484999
-1.2514411 -0.31951925 2.7409999
-1.388777 -0.49030346 2.7509999
-1.3840103 -0.48344374 2.7542
-1.3748407 -0.48305398 2.7550001
-1.3538122 -0.48314115 2.7555001
-1.284892 -0.4858844 2.756
-1.27668 -0.48314211 2.7555001
-1.265811 -0.48039982 2.7550001
-1.2551738 -0.48039982 2.7550001
-1.3857979 -0.47607177 2.753
-1.3748407 -0.47509155 2.7550001
-1.266041 -0.47517776 2.7555001
-1.3846365 -0.46949902 2.7533333
-1.3748407 -0.46712911 2.7550001
-1.3695222 -0.46447498 2.7550001
-1.2551738 -0.46712911 2.7550001
-1.3882722 -0.45303467 2.75
-1.3643823 -0.45568401 2.75
-1.3588852 -0.45385841 2.7550001
-1.2578331 -0.45916668 2.7550001
-1.2418774 -0.45385841 2.7550001
-1.2336752 -0.453776 2.7544999
-1.2232625 -0.45385841 2.7550001
-1.2046478 -0.45385841 2.7550001
-1.1993293 -0.45651254 2.7550001
-1.3907964 -0.44589597 2.7550001
-1.3854779 -0.44855011 2.7550001
-1.3617278 -0.44508672 2.75
-1.3588852 -0.44589597 2.7550001
-1.2438012 -0.44683495 2.7553337
-1.2338996 -0.44855011 2.7550001
-1.3617278 -0.43448943 2.75
-1.2418774 -0.43793353 2.7550001
-1.3932033 -0.42723942 2.7544999
-1.3617278 -0.42389208 2.75
-1.3593785 -0.42216185 2.756
-1.3622229 -0.41079479 2.7509999
-1.2565405 -0.41184005 2.7579999
-1.2447619 -0.41412187 2.7555001
-1.2345715 -0.41427311 2.7565
-1.384472 -0.40048459 2.753
-1.3666134 -0.4007028 2.7544999
-1.2911485 -0.406526 2.7579999
-1.2835833 -0.40460917 2.757
-1.2771413 -0.40365076 2.7565
-1.2667307 -0.40637863 2.757
-1.2551738 -0.40342969 2.7550001
-1.2445366 -0.40342969 2.7550001
-1.2338996 -0.40342969 2.7550001
-1.3801594 -0.39015898 2.7550001
-1.3764466 -0.39364997 2.7546666
-1.3680795 -0.39202282 2.7556667
-1.2525145 -0.39546725 2.7550001
-1.2445366 -0.39281312 2.7550001
-1.2365589 -0.39281312 2.7550001
-1.3642037 -0.38485068 2.7550001
-1.2445366 -0.38485068 2.7550001
-1.2365589 -0.38485068 2.7550001
-1.2534237 -0.37450579 2.757
-1.2456665 -0.37457371 2.7574999
-1.4011825 -0.49812621 2.7650001
-1.3618445 -0.48410594 2.7609999
-1.2947987 -0.48339435 2.7620001
-1.2823572 -0.48162043 2.7620001
-1.3036854 -0.47097689 2.7620001
-1.2770251 -0.47363776 2.7620001
-1.266361 -0.47097689 2.7620001
-1.3618445 -0.4654865 2.7609999
-1.3565145 -0.4654865 2.7609999
-1.266361 -0.46299422 2.7620001
-1.2614856 -0.45517629 2.763
-1.2614856 -0.44719076 2.763
-1.2508175 -0.43654335 2.763
-1.4049942 -0.42840272 2.7620001
-1.3933204 -0.42277455 2.76
-1.2512703 -0.42338726 2.7639999
-1.3933204 -0.41479769 2.76
-1.3691554 -0.41821292 2.7650001
-1.267278 -0.41273603 2.7639999
-1.3933204 -0.4068208 2.76
-1.3686602 -0.40741038 2.7639999
-1.2959232 -0.40452936 2.7624998
-1.2797992 -0.40266666 2.7679999
-1.2691119 -0.40266666 2.7679999
-1.3882437 -0.39359683 2.7605
-1.3157771 -0.39690271 2.7650001
-1.3046293 -0.39143351 2.7639999
-1.3884951 -0.38568881 2.7609999
-1.3764817 -0.38680637 2.7690001
-1.2541625 -0.38085115 2.7645001
-1.2432646 -0.38078228 2.7639999
-1.4008929 -0.49992776 2.7750001
-1.3921018 -0.49431357 2.7735
-1.3765352 -0.48647305 2.7744999
-1.376411 -0.47573867 2.77425
-1.3726217 -0.46467054 2.7720001
-1.3616732 -0.45390701 2.7715001
-1.3641933 -0.4425745 2.773
-1.3651761 -0.43398234 2.7749999
-1.4070101 -0.42262667 2.7765
-1.365702 -0.4236168 2.77425
-1.4072635 -0.41467726 2.777
-1.3658229 -0.41430396 2.7744999
-1.4013977 -0.40383044 2.776
-1.3664393 -0.4064694 2.7757502
-1.3573108 -0.40426686 2.779
-1.3716313 -0.39762041 2.77
-1.3663162 -0.39573699 2.7754998
-1.356334 -0.39862522 2.777
-1.3492635 -0.39891234 2.779
-1.3322095 -0.39327455 2.777
-1.3236921 -0.39313293 2.776
-1.3132335 -0.39650738 2.7746665
-1.3848195 -0.38586095 2.7749999
-1.3668094 -0.38785404 2.7765
-1.4210492 -0.43165991 2.783
-1.4149137 -0.42338777 2.7814999
-1.4151679 -0.4154239 2.7820001
-1.4097973 -0.41006359 2.7820001
-1.4097973 -0.40470329 2.7820001
-1.4044267 -0.39934298 2.7820001
