# .PCD v0.7 - Point Cloud Data file format
VERSION 0.7
FIELDS x y z
SIZE 4 4 4
TYPE F F F
COUNT 1 1 1
WIDTH 174
HEIGHT 1
VIEWPOINT 0 0 0 1 0 0 0
POINTS 174
DATA ascii
0.65611869 0.2493574 2.4189999
0.81590539 0.147 2.4219999
0.83963037 0.1423921 2.4230001
0.84629726 0.14233333 2.4219999
0.68171525 0.24082948 2.427
0.79808974 0.14333236 2.4389999
0.80618238 0.14778902 2.4349999
0.81306612 0.14775866 2.4345
0.82733589 0.14778902 2.4349999
0.8340444 0.14772832 2.434
0.90093726 0.15260598 2.437
0.66072977 0.2464162 2.4360001
0.67691118 0.24162331 2.4349999
0.90824324 0.15304431 2.444
0.9168185 0.1532948 2.448
0.92390734 0.15801156 2.448
0.75340402 0.13951397 2.4545002
0.76098073 0.13959923 2.4560001
0.77488899 0.13954239 2.4549999
0.77140445 0.14450772 2.4590001
0.80707717 0.14409633 2.4519999
0.81280404 0.14427264 2.4549999
0.88389474 0.14900288 2.4549999
0.90722203 0.1489422 2.454
0.91283786 0.14869942 2.45
0.88718629 0.15348266 2.451
0.89738131 0.1536079 2.4530001
0.90101355 0.15342005 2.45
0.92466217 0.15342005 2.45
0.93280602 0.15872158 2.4590001
0.68845654 0.23848844 2.451
0.66669691 0.24390559 2.4579999
0.67381465 0.24390559 2.4579999
0.75709122 0.13544366 2.4665
0.76661539 0.13544366 2.4665
0.7747696 0.13692294 2.4646666
0.78582048 0.13547111 2.467
0.74797297 0.14456648 2.46
0.76852798 0.14011079 2.4649999
0.78518337 0.14011079 2.4649999
0.79518485 0.14019606 2.4665
0.8024894 0.14022447 2.467
0.82392085 0.14497784 2.467
0.83344597 0.14497784 2.467
0.84297103 0.14497784 2.467
0.85011488 0.14497784 2.467
0.86846042 0.1448603 2.4649999
0.87630892 0.14497784 2.467
0.88345271 0.14497784 2.467
0.89535904 0.14973122 2.467
0.89701253 0.15435934 2.4649999
0.68539047 0.23989934 2.4654999
0.76432288 0.1263473 2.4745002
0.75283784 0.13596532 2.4760001
0.7641679 0.13108863 2.474
0.79425001 0.13569075 2.471
0.74805796 0.14550675 2.4760001
0.75253373 0.14067918 2.4749999
0.80823362 0.14039499 2.47
0.7429778 0.15021676 2.4749999
0.74267763 0.16445665 2.474
0.69519788 0.23366667 2.4749999
0.70589286 0.23165993 2.4790001
0.75751495 0.12680684 2.4835
0.76475769 0.12202986 2.4836667
0.77669311 0.12441377 2.4835
0.78595591 0.12528485 2.4849999
0.79459113 0.12538697 2.4870002
0.75384343 0.1327748 2.4832499
0.7765367 0.13156551 2.483
0.78612357 0.13156551 2.483
0.79571044 0.13156551 2.483
0.8057847 0.13403708 2.4844999
0.81554055 0.13645953 2.4849999
0.75017279 0.14113392 2.483
0.81728089 0.14113392 2.483
0.82447106 0.14113392 2.483
0.74088418 0.15076301 2.484
0.73594064 0.16748026 2.4835
0.74068528 0.16507642 2.4833333
0.73579246 0.17701542 2.483
0.73594064 0.18662187 2.4835
0.74228317 0.18740654 2.4833333
0.68708819 0.23550673 2.4859998
0.69320947 0.23461272 2.4850001
0.70223844 0.23203373 2.483
0.7444787 0.23250096 2.4879999
0.67723453 0.24208863 2.4879999
0.68333977 0.24169941 2.484
0.76794016 0.11773217 2.494
0.77151543 0.11754335 2.49
0.75560039 0.12489017 2.493
0.74823117 0.14407466 2.4925001
0.73845947 0.15124856 2.4920001
0.74160379 0.15620665 2.4945002
0.73620224 0.16328469 2.4925001
0.73335427 0.17518592 2.4909999
0.73335421 0.18718496 2.4909999
0.73767805 0.19489162 2.4974999
0.74476159 0.19485261 2.497
0.67191601 0.23796241 2.4949999
0.68526542 0.23278131 2.4909999
0.71383202 0.23268786 2.49
0.73860765 0.23532128 2.4924998
0.67218536 0.24286705 2.4960001
0.73366386 0.096348509 2.5002499
0.69934654 0.10868497 2.507
0.70477366 0.10840318 2.5005
0.73147005 0.10842485 2.5009999
0.69906759 0.11588439 2.506
0.70463318 0.11560694 2.5
0.71215731 0.11806262 2.5009999
0.72458756 0.1157093 2.50225
0.69906759 0.12554143 2.506
0.70463324 0.12524085 2.5
0.71435738 0.12525313 2.5002499
0.72393823 0.12524085 2.5
0.73381108 0.1252777 2.5007501
0.74346596 0.1252777 2.5007501
0.75048262 0.13487476 2.5
0.72648007 0.14405137 2.5059998
0.73366386 0.14452289 2.5002499
0.74324328 0.14450867 2.5
0.73359072 0.15414259 2.5
0.72657686 0.16499519 2.5063334
0.73278636 0.16297366 2.5
0.68669689 0.17617053 2.5050001
0.69934654 0.17389499 2.507
0.72619015 0.17295408 2.5049999
0.73117763 0.1734104 2.5
0.6871115 0.18352167 2.5065
0.69367564 0.18574952 2.5039999
0.71927899 0.18612044 2.5090001
0.72512871 0.18394476 2.5013332
0.73117763 0.18304431 2.5
0.68911684 0.1906503 2.5050001
0.69539917 0.19038391 2.5015001
0.72480404 0.19049808 2.503
0.73346877 0.19526879 2.5023334
0.73579097 0.20291859 2.5074999
0.64075774 0.22926302 2.5050001
0.68683255 0.22930878 2.5055001
0.69539917 0.22894268 2.5015001
0.70604253 0.22926302 2.5050001
0.71571434 0.22926302 2.5050001
0.73865348 0.2296291 2.5090001
0.74324322 0.22880539 2.5
0.75048262 0.22880539 2.5
0.63947874 0.23362236 2.5
0.64559364 0.23408961 2.5050001
0.65042955 0.23408961 2.5050001
0.66502517 0.23894799 2.5053334
0.67863131 0.23863007 2.5020001
0.6822117 0.2355395 2.5033333
0.72466457 0.23385599 2.5025001
0.7347635 0.23399615 2.5040002
0.68459129 0.17385034 2.5179999
0.70573121 0.17427698 2.5125
0.6844092 0.18512137 2.5173333
0.69402218 0.18164739 2.5139999
0.68540144 0.1940655 2.5179999
0.69443291 0.19629624 2.5155001
0.70481497 0.19464321 2.5150001
0.68621165 0.20296018 2.5179999
0.69512355 0.20376877 2.5179999
0.69512355 0.21347205 2.5179999
0.69512349 0.22317533 2.5179999
0.70241505 0.22560115 2.5179999
0.65788132 0.23986995 2.5150001
0.68324232 0.23054431 2.5190001
0.64459461 0.22578034 2.52
0.65484166 0.23243737 2.5220001
0.6672799 0.23577167 2.523
0.67702127 0.23577167 2.523
