# .PCD v0.7 - Point Cloud Data file format
VERSION 0.7
FIELDS x y z
SIZE 4 4 4
TYPE F F F
COUNT 1 1 1
WIDTH 1490
HEIGHT 1
VIEWPOINT 0 0 0 1 0 0 0
POINTS 1490
DATA ascii
-0.42296523 -0.83722544 2.448
-0.41587645 -0.83722544 2.448
-0.40609461 -0.83654141 2.4460001
-0.56704825 -0.8453815 2.4579999
-0.51443243 -0.84469366 2.4560001
-0.43418339 -0.84064543 2.4579999
-0.50948358 -0.83961946 2.4549999
-0.48045945 -0.83859342 2.4519999
-0.43803573 -0.83893549 2.4530001
-0.427333 -0.83646536 2.4549999
-0.5586921 -0.85184681 2.4630001
-0.63753426 -0.84524322 2.4645
-0.62100869 -0.84778899 2.4649999
-0.60398507 -0.84727311 2.4635
-0.59697294 -0.84744507 2.464
-0.5850811 -0.84744507 2.464
-0.5755676 -0.84744507 2.464
-0.55665398 -0.84761703 2.4645
-0.54702699 -0.84744507 2.464
-0.53751349 -0.84744507 2.464
-0.5260483 -0.84813297 2.4660001
-0.51694596 -0.84406549 2.4679999
-0.50163418 -0.84235549 2.4630001
-0.4947027 -0.8426975 2.464
-0.48727077 -0.84455442 2.4625001
-0.47567567 -0.8426975 2.464
-0.46597299 -0.84235549 2.4630001
-0.45646334 -0.84235549 2.4630001
-0.44695368 -0.84235549 2.4630001
-0.44731659 -0.83828998 2.4649999
-0.43762162 -0.83794987 2.464
-0.42080215 -0.83760983 2.4630001
-0.41298875 -0.83625335 2.4636667
-0.4067027 -0.8355751 2.464
-0.67717862 -0.85260409 2.4790001
-0.5325309 -0.85565126 2.474
-0.52403575 -0.85260409 2.4790001
-0.4839865 -0.83999038 2.47
-0.43170944 -0.83556932 2.471
-0.42745751 -0.83658379 2.474
-0.41739863 -0.83556932 2.471
-0.69320941 -0.8546676 2.4849999
-0.68223941 -0.85294801 2.48
-0.63247877 -0.85363585 2.4820001
-0.62050003 -0.85363585 2.4820001
-0.53382242 -0.85294801 2.48
-0.63500148 -0.84902459 2.4825001
-0.62386167 -0.84748679 2.4826667
-0.61355984 -0.84680247 2.4829998
-0.60385185 -0.84663248 2.4824998
-0.5943861 -0.84441137 2.483
-0.58456373 -0.84646142 2.4819999
-0.57737643 -0.84646142 2.4819999
-0.53425294 -0.84885359 2.4820001
-0.52695894 -0.84868252 2.4815001
-0.5009141 -0.84441137 2.483
-0.49372393 -0.84441137 2.483
-0.48115832 -0.84339112 2.48
-0.47397685 -0.84339112 2.48
-0.46440154 -0.84339112 2.48
-0.45722008 -0.84339112 2.48
-0.48413706 -0.83962721 2.483
-0.47455019 -0.83962721 2.483
-0.46496332 -0.83962721 2.483
-0.45777318 -0.83962721 2.483
-0.44516921 -0.8383674 2.484
-0.43833447 -0.83672786 2.4815001
-0.42370656 -0.83861274 2.48
-0.73088515 -0.85466766 2.4990001
-0.72123653 -0.85948271 2.4990001
-0.71641219 -0.85948271 2.4990001
-0.70165825 -0.85913867 2.4979999
-0.69145948 -0.85845089 2.4960001
-0.68264192 -0.85466766 2.4990001
-0.63922298 -0.85466766 2.4990001
-0.64378953 -0.84951252 2.4979999
-0.63439864 -0.84985262 2.4990001
-0.62716222 -0.84744513 2.4990001
-0.61027706 -0.84503758 2.4990001
-0.60292035 -0.84486848 2.4984999
-0.59315443 -0.84469938 2.4979999
-0.45480406 -0.8430087 2.493
-0.47481564 -0.83955008 2.497
-0.46758494 -0.83955008 2.497
-0.43314385 -0.83820522 2.493
-0.42403185 -0.83921385 2.4959998
-0.41406178 -0.83854139 2.494
-0.72780406 -0.85671967 2.5050001
-0.71187258 -0.85982656 2.5
-0.70747054 -0.85793114 2.5015001
-0.69795173 -0.8556937 2.5020001
-0.63947874 -0.85019267 2.5
-0.46219787 -0.84291232 2.507
-0.45269883 -0.84324855 2.5079999
-0.40847105 -0.84190363 2.5039999
-0.44481325 -0.83724618 2.5044999
-0.71614385 -0.86013973 2.5150001
-0.70643342 -0.86013973 2.5150001
-0.69457239 -0.86048174 2.516
-0.68324232 -0.86150771 2.5190001
-0.76499999 -0.85321003 2.516
-0.75285715 -0.85563391 2.516
-0.68755889 -0.85597396 2.517
-0.65840447 -0.85354722 2.5170002
-0.6438272 -0.85112429 2.517
-0.63871431 -0.85078615 2.516
-0.62669545 -0.85095525 2.5165
-0.43688178 -0.84058917 2.5145001
-0.65666121 -0.86005491 2.529
-0.79116797 -0.85281503 2.5220001
-0.77871722 -0.85518211 2.529
-0.76652026 -0.85247684 2.5209999
-0.74675673 -0.85699421 2.52
-0.68432724 -0.85801446 2.523
-0.81599665 -0.84602845 2.5235
-0.46045944 -0.8486281 2.5239999
-0.43122393 -0.8437649 2.5239999
-0.42349371 -0.84292918 2.5215001
-0.41743147 -0.84543645 2.529
-0.81615829 -0.83647013 2.5239999
-0.81615829 -0.82674372 2.5239999
-0.81615829 -0.81944889 2.5239999
-0.81289285 -0.79670811 2.529
-0.81551152 -0.7653442 2.5220001
-0.82200676 -0.75225723 2.527
-0.81615829 -0.75379574 2.5239999
-0.82590348 -0.74406934 2.5239999
-0.81615829 -0.74650097 2.5239999
-0.82590348 -0.73434293 2.5239999
-0.83077604 -0.72218496 2.5239999
-0.74415249 -0.86243546 2.536
-0.73133779 -0.86663777 2.5339999
-0.72385573 -0.86402464 2.5335002
-0.71435666 -0.86192536 2.5345001
-0.70457095 -0.86192536 2.5345001
-0.69736969 -0.86209542 2.5350001
-0.66668916 -0.86039495 2.53
-0.81340384 -0.85417891 2.5356667
-0.80624169 -0.85513133 2.5336666
-0.78728378 -0.85653466 2.533
-0.76709169 -0.8585636 2.539
-0.71807629 -0.8585636 2.539
-0.69764477 -0.85754913 2.536
-0.66646332 -0.85406685 2.5353334
-0.6558376 -0.85485238 2.5352499
-0.64585763 -0.85215849 2.5345001
-0.63813996 -0.85165411 2.533
-0.81514287 -0.84533334 2.536
-0.65358299 -0.84777647 2.536
-0.81514287 -0.83556068 2.536
-0.81514287 -0.82578802 2.536
-0.81742805 -0.81585306 2.5355
-0.81385714 -0.80253184 2.5320001
-0.8231411 -0.74342561 2.53425
-0.8187452 -0.74398845 2.5320001
-0.82248652 -0.73294795 2.536
-0.82661796 -0.72484922 2.5361669
-0.83308005 -0.71931112 2.5309999
-0.83862835 -0.70523798 2.533
-0.8441844 -0.69602019 2.5350001
-0.85464382 -0.68679863 2.5369999
-0.84740347 -0.68977839 2.53
-0.92884266 -0.25683525 2.539
-0.92847687 -0.24695377 2.5380001
-0.93300867 -0.19552891 2.5370002
-0.93374419 -0.16633141 2.539
-0.93245709 -0.15633479 2.5355
-0.92884266 -0.146763 2.539
-0.92574739 -0.13595086 2.5350001
-0.91586584 -0.13442679 2.5370002
-0.92284942 -0.12704432 2.536
-0.91550577 -0.12704432 2.536
-0.90676904 -0.12626398 2.5366669
-0.89592278 -0.12460116 2.536
-0.88613129 -0.12460116 2.536
-0.87651205 -0.12462572 2.5365
-0.92448133 -0.11645729 2.536
-0.91550577 -0.11727168 2.536
-0.90571427 -0.11727168 2.536
-0.89592278 -0.11727167 2.536
-0.88613129 -0.11727168 2.536
-0.87633973 -0.11727168 2.536
-0.86899614 -0.11727168 2.536
-0.93508875 -0.10016955 2.536
-0.92529732 -0.10505588 2.536
-0.91550571 -0.10505587 2.536
-0.90571427 -0.10505588 2.536
-0.89592284 -0.10505587 2.536
-0.88624746 -0.10506936 2.5363333
-0.87520194 -0.10628733 2.5362499
-0.93508881 -0.092840075 2.536
-0.92529726 -0.092840075 2.536
-0.91550583 -0.092840075 2.536
-0.90571427 -0.092840075 2.536
-0.89592278 -0.092840075 2.536
-0.88630545 -0.092858389 2.5365
-0.87423646 -0.092876688 2.5369999
-0.93508875 -0.083067432 2.536
-0.92529726 -0.083067432 2.536
-0.91550583 -0.083067439 2.536
-0.90571427 -0.083067439 2.536
-0.89592278 -0.083067432 2.536
-0.88630545 -0.083083808 2.5365
-0.87423646 -0.083100185 2.5369999
-0.86899614 -0.083067432 2.536
-0.85498267 -0.083132952 2.5380001
-0.6954807 -0.86093062 2.546
-0.80171812 -0.85400772 2.54
-0.81248361 -0.84521675 2.543
-0.45883593 -0.84978229 2.5420001
-0.43549517 -0.847211 2.549
-0.42685279 -0.84471822 2.5415001
-0.41434363 -0.84911364 2.54
-0.81216413 -0.83753759 2.5420001
-0.81674999 -0.82007223 2.5409999
-0.81674999 -0.81028032 2.5409999
-0.81755358 -0.7939263 2.5434999
-0.81707144 -0.78366089 2.5420001
-0.81707144 -0.7738651 2.5420001
-0.81707144 -0.76651829 2.5420001
-0.82424229 -0.72442681 2.549
-0.83539087 -0.71618915 2.543
-0.84160811 -0.70284587 2.5420001
-0.83900481 -0.70969266 2.549
-0.84160811 -0.69794798 2.5420001
-0.89208299 -0.68432951 2.546
-0.88190639 -0.68896437 2.5450001
-0.87453675 -0.68896437 2.5450001
-0.86648554 -0.68842292 2.543
-0.85734075 -0.68406069 2.5450001
-0.84851354 -0.68977654 2.5480001
-0.91102707 -0.56369847 2.5440001
-0.92012548 -0.43591136 2.5420001
-0.92012548 -0.42611563 2.5420001
-0.92012548 -0.41631985 2.5420001
-0.92503285 -0.39672834 2.5420001
-0.92503285 -0.3893815 2.5420001
-0.92084938 -0.37008092 2.5439999
-0.91976345 -0.36474854 2.5409999
-0.91976339 -0.35495663 2.5409999
-0.92466891 -0.32558092 2.5409999
-0.9264884 -0.29188246 2.546
-0.92594254 -0.28435212 2.5444999
-0.92703426 -0.27487332 2.5475001
-0.92920846 -0.25204238 2.54
-0.93213516 -0.24301735 2.5480001
-0.93176925 -0.23801444 2.5469999
-0.92920846 -0.23246628 2.54
-0.92920846 -0.22512524 2.54
-0.93176925 -0.21347687 2.5469999
-0.92920846 -0.2177842 2.54
-0.93411195 -0.18597302 2.54
-0.92475677 -0.13991909 2.5480001
-0.91527802 -0.1375183 2.549
-0.9078967 -0.13015126 2.549
-0.87345076 -0.12523988 2.549
-0.87070942 -0.11015896 2.5409999
-0.88052022 -0.105263 2.5409999
-0.86580402 -0.080783233 2.5409999
-0.68340927 -0.87416184 2.556
-0.79258496 -0.86005974 2.5580001
-0.76362932 -0.86295956 2.552
-0.74145949 -0.86787671 2.552
-0.73363191 -0.86668915 2.5533333
-0.72639483 -0.86262143 2.5510001
-0.71478331 -0.86346674 2.5534999
-0.70725 -0.8632977 2.553
-0.69273549 -0.86363578 2.5539999
-0.8132143 -0.85345954 2.553
-0.80351496 -0.85608619 2.5534999
-0.79627603 -0.85871482 2.5539999
-0.78087258 -0.85804242 2.552
-0.77594596 -0.85804242 2.552
-0.72492617 -0.85888296 2.5545001
-0.71548164 -0.85938728 2.556
-0.67547977 -0.85625529 2.5539999
-0.66782141 -0.85345954 2.553
-0.6530357 -0.85345954 2.553
-0.64564288 -0.85345954 2.553
-0.63578379 -0.85837865 2.553
-0.42238322 -0.85053468 2.559
-0.41201931 -0.85446244 2.556
-0.81138515 -0.8467437 2.5550001
-0.80708396 -0.8474046 2.5570002
-0.44110712 -0.84854043 2.553
-0.81323975 -0.83629513 2.5556667
-0.81477928 -0.82633907 2.5553334
-0.81385136 -0.81720614 2.5550001
-0.81467342 -0.80818081 2.5550001
-0.81674361 -0.79546529 2.5563335
-0.82125002 -0.76305401 2.5550001
-0.82125002 -0.75320816 2.5550001
-0.82221431 -0.74669945 2.5580001
-0.83013898 -0.72036225 2.552
-0.83702898 -0.7171272 2.5580001
-0.84196723 -0.70726979 2.5580001
-0.88891029 -0.69058865 2.5510001
-0.84458786 -0.69550389 2.5510001
-0.90157819 -0.6828931 2.559
-0.86665833 -0.68755496 2.5580001
-0.85443729 -0.68567342 2.5510001
-0.90403861 -0.67610788 2.552
-0.91321236 -0.63309157 2.5570002
-0.91285622 -0.62545764 2.5560002
-0.90510136 -0.62275052 2.5550001
-0.91038996 -0.61560595 2.556
-0.90545559 -0.61560595 2.556
-0.91038996 -0.56389594 2.556
-0.91514528 -0.55639935 2.5555
-0.91496623 -0.54398364 2.5550001
-0.91496623 -0.53659928 2.5550001
-0.91332215 -0.52593291 2.5550001
-0.91332215 -0.51772803 2.5550001
-0.91496623 -0.50706172 2.5550001
-0.91989869 -0.48490849 2.5550001
-0.91989869 -0.47506264 2.5550001
-0.91989869 -0.46275532 2.5550001
-0.91989869 -0.4553709 2.5550001
-0.92410713 -0.41074276 2.553
-0.92483109 -0.40368018 2.5550001
-0.92483109 -0.39383429 2.5550001
-0.92573601 -0.3843627 2.5574999
-0.9213388 -0.36486703 2.559
-0.9213388 -0.3550058 2.559
-0.92410719 -0.34433335 2.553
-0.92308497 -0.3350212 2.5570002
-0.92683393 -0.32422158 2.556
-0.92774975 -0.31522232 2.5562501
-0.92531127 -0.30538085 2.5563333
-0.92528212 -0.29552001 2.5562501
-0.92290497 -0.28569752 2.5565
-0.92573601 -0.27595329 2.5574999
-0.92784035 -0.26599422 2.5565
-0.93049127 -0.25372928 2.5569999
-0.92784029 -0.25860548 2.5565
-0.93085521 -0.24643546 2.5580001
-0.93085521 -0.23657805 2.5580001
-0.93067324 -0.22667679 2.5574999
-0.93049133 -0.21677746 2.5570002
-0.93277562 -0.2068844 2.5565
-0.93277562 -0.19703276 2.5565
-0.93542761 -0.18721676 2.5570002
-0.93365961 -0.17652023 2.5566666
-0.93554956 -0.16506745 2.5573335
-0.93323267 -0.15482949 2.5510001
-0.92747831 -0.1501787 2.5555
-0.92495114 -0.14524536 2.5553334
-0.91267812 -0.14033094 2.5555
-0.91003382 -0.13538054 2.5550001
-0.90263516 -0.13291907 2.5550001
-0.89277029 -0.13291907 2.5550001
-0.88372749 -0.13209859 2.5550001
-0.87057436 -0.12307322 2.5550001
-0.86399776 -0.12225273 2.5550001
-0.87057436 -0.11322737 2.5550001
-0.86317569 -0.11322737 2.5550001
-0.85331082 -0.11322737 2.5550001
-0.88537163 -0.10092004 2.5550001
-0.87304056 -0.1033815 2.5550001
-0.86317569 -0.1033815 2.5550001
-0.85331082 -0.1033815 2.5550001
-0.88537163 -0.093535647 2.5550001
-0.87261224 -0.093491092 2.55375
-0.86399776 -0.094356142 2.5550001
-0.8545211 -0.093014836 2.5541999
-0.88537163 -0.083689794 2.5550001
-0.86660522 -0.084443487 2.5530002
-0.85314333 -0.08367341 2.5545001
-0.84344596 -0.083689794 2.5550001
-0.83604729 -0.081228323 2.5550001
-0.69049805 -0.87689787 2.5639999
-0.68033302 -0.8716175 2.563
-0.79011005 -0.86274952 2.566
-0.75861001 -0.86566472 2.5599999
-0.73647976 -0.86375821 2.569
-0.80308878 -0.85333335 2.5599999
-0.77929056 -0.85680246 2.563
-0.46812162 -0.85780537 2.566
-0.44848165 -0.85319364 2.5669999
-0.41891122 -0.85352606 2.5680001
-0.80803084 -0.84100193 2.5599999
-0.42882627 -0.84857804 2.5680001
-0.81297296 -0.83113676 2.5599999
-0.80834651 -0.82406068 2.5609999
-0.80803084 -0.81387281 2.5599999
-0.81297296 -0.80400765 2.5599999
-0.81297296 -0.79660887 2.5599999
-0.81791502 -0.78427744 2.5599999
-0.81791502 -0.77441227 2.5599999
-0.81791502 -0.76454723 2.5599999
-0.81791502 -0.75468206 2.5599999
-0.82166409 -0.74598455 2.5640001
-0.82285714 -0.73495185 2.5599999
-0.82941604 -0.72403181 2.5650001
-0.83635086 -0.71620274 2.5634999
-0.84262544 -0.70289016 2.5599999
-0.84674513 -0.69685161 2.5650001
-0.89344013 -0.68916762 2.5639999
-0.88952988 -0.68997395 2.5669999
-0.8761158 -0.68916762 2.5639999
-0.86340445 -0.6839605 2.563
-0.85681897 -0.68709779 2.5654998
-0.90758109 -0.67382079 2.562
-0.91747296 -0.65407515 2.562
-0.91665536 -0.64478451 2.5643332
-0.91675675 -0.63876683 2.5599999
-0.9093523 -0.63062137 2.5669999
-0.90263516 -0.62445664 2.562
-0.90316367 -0.61741185 2.5634999
-0.91252702 -0.60717916 2.562
-0.91323936 -0.59777069 2.5640001
-0.91395175 -0.58587861 2.566
-0.91217089 -0.57486802 2.5610001
-0.91199279 -0.56488776 2.5605001
-0.90793532 -0.56544024 2.563
-0.91288316 -0.55556357 2.563
-0.91369945 -0.54518944 2.5606668
-0.91199279 -0.5328213 2.5605001
-0.90740395 -0.52315748 2.5615001
-0.91217089 -0.51318693 2.5610001
-0.91482097 -0.50341666 2.5615001
-0.92205894 -0.49098173 2.5610001
-0.91711491 -0.48111275 2.5610001
-0.91675675 -0.473526 2.5599999
-0.91675675 -0.4636609 2.5599999
-0.92169881 -0.45132947 2.5599999
-0.91675675 -0.45626202 2.5599999
-0.92169881 -0.41186896 2.5599999
-0.92169881 -0.40693641 2.5599999
-0.92277896 -0.38765991 2.563
-0.9243499 -0.37494749 2.5605001
-0.92205888 -0.34541523 2.5609999
-0.92349905 -0.31382948 2.5650001
-0.9245792 -0.29935262 2.5680001
-0.92421907 -0.27945182 2.5669999
-0.92881274 -0.25462234 2.566
-0.92881274 -0.22495762 2.566
-0.92845076 -0.21992776 2.5650001
-0.93303859 -0.19020037 2.5639999
-0.93413025 -0.18053082 2.5669999
-0.93303859 -0.1704393 2.5639999
-0.93413025 -0.15580057 2.5669999
-0.92705798 -0.15338728 2.5680001
-0.91696382 -0.14593691 2.5675001
-0.90687454 -0.14096242 2.5669999
-0.89696324 -0.14096242 2.5669999
-0.88987648 -0.14101735 2.5680001
-0.88491893 -0.13606937 2.5680001
-0.87748265 -0.1311214 2.5680001
-0.8626101 -0.12369943 2.5680001
-0.85517377 -0.12122544 2.5680001
-0.69319111 -0.87287855 2.5739999
-0.6880883 -0.87270856 2.5734999
-0.79226542 -0.86014545 2.573
-0.77442813 -0.86459875 2.5715001
-0.76832432 -0.86611176 2.576
-0.74478769 -0.86972255 2.572
-0.71251351 -0.8647669 2.572
-0.70258301 -0.8647669 2.572
-0.69540441 -0.86510313 2.573
-0.68507195 -0.86707568 2.5715001
-0.80230373 -0.85529739 2.5733333
-0.79645514 -0.85568357 2.5745001
-0.78564245 -0.85683972 2.573
-0.73237455 -0.85981119 2.572
-0.7274093 -0.85981119 2.572
-0.65515828 -0.85452318 2.5710001
-0.64771336 -0.85452318 2.5710001
-0.41459846 -0.85485548 2.572
-0.80561697 -0.8447383 2.5743999
-0.79878187 -0.84691525 2.5780001
-0.43445948 -0.84989983 2.572
-0.42452896 -0.84989983 2.572
-0.81213415 -0.83783525 2.573
-0.80577552 -0.8340115 2.5764999
-0.80889237 -0.82472205 2.5785
-0.81244975 -0.81088436 2.5739999
-0.80904925 -0.81494415 2.579
-0.81292319 -0.80391181 2.5755
-0.80904925 -0.80749035 2.579
-0.81821281 -0.7942943 2.5764999
-0.81900674 -0.78512907 2.579
-0.81900674 -0.77519071 2.579
-0.81900674 -0.76525241 2.579
-0.81805408 -0.75443447 2.576
-0.82366598 -0.74508572 2.5780001
-0.82647491 -0.73543739 2.579
-0.83297294 -0.72217339 2.576
-0.84095556 -0.71058762 2.5699999
-0.83794594 -0.71720999 2.576
-0.84390056 -0.70562232 2.579
-0.88560808 -0.69078034 2.5699999
-0.85154057 -0.69131792 2.572
-0.90827221 -0.68299615 2.5780001
-0.87275672 -0.68742967 2.576
-0.85783786 -0.68742967 2.576
-0.91041505 -0.670973 2.5699999
-0.91467083 -0.65491426 2.5749998
-0.91348839 -0.6455664 2.5739999
-0.91183197 -0.63730055 2.5739999
-0.90686291 -0.63234103 2.5739999
-0.91183197 -0.61250287 2.5739999
-0.90686291 -0.61250287 2.5739999
-0.91183197 -0.60506356 2.5739999
-0.90686291 -0.60506356 2.5739999
-0.91520411 -0.59572303 2.5764999
-0.9072153 -0.59785646 2.575
-0.91502702 -0.58568013 2.576
-0.90862453 -0.58387762 2.579
-0.91130066 -0.57497251 2.5725
-0.9072153 -0.57801062 2.575
-0.91183197 -0.56290752 2.5739999
-0.9139595 -0.55492872 2.5753334
-0.91183197 -0.54554915 2.5739999
-0.90862453 -0.54412431 2.579
-0.9114778 -0.53542292 2.573
-0.9052543 -0.53615028 2.5764999
-0.90579057 -0.52687961 2.5756667
-0.91271764 -0.51629043 2.5764999
-0.9235608 -0.49691716 2.579
-0.9235608 -0.48946339 2.579
-0.91858202 -0.48449421 2.579
-0.91858202 -0.47704047 2.579
-0.91858202 -0.46710211 2.579
-0.92284459 -0.45432657 2.5769999
-0.91858202 -0.45964837 2.579
-0.9281795 -0.44705105 2.5780001
-0.92853957 -0.43977168 2.579
-0.92853957 -0.42486417 2.579
-0.92425478 -0.41660112 2.5739999
-0.91822588 -0.41476494 2.5780001
-0.92306662 -0.40569845 2.573
-0.91822588 -0.40731406 2.5780001
-0.92452335 -0.39687786 2.5747499
-0.91822588 -0.39986321 2.5780001
-0.92497104 -0.38714644 2.576
-0.92569113 -0.375027 2.5780001
-0.92320275 -0.36509249 2.5780001
-0.92194927 -0.35715654 2.5745001
-0.91822588 -0.355158 2.5780001
-0.92320275 -0.34025627 2.5780001
-0.92569113 -0.3328054 2.5780001
-0.92817956 -0.32287091 2.5780001
-0.92284459 -0.31033236 2.5769999
-0.92284459 -0.3028844 2.5769999
-0.92212832 -0.29272541 2.5749998
-0.91786963 -0.29543641 2.5769999
-0.92284459 -0.28302312 2.5769999
-0.92479199 -0.27293351 2.5755
-0.92488152 -0.26303396 2.5757499
-0.93207049 -0.25055397 2.575
-0.92709947 -0.25551543 2.575
-0.93243241 -0.24320713 2.576
-0.93170846 -0.23309827 2.5739999
-0.92853957 -0.23106648 2.579
-0.92853957 -0.22361273 2.579
-0.93170846 -0.21326011 2.5739999
-0.9279995 -0.21355154 2.5774999
-0.93170846 -0.20334104 2.5739999
-0.9279995 -0.20361705 2.5774999
-0.93170846 -0.19342196 2.5739999
-0.92745948 -0.19357225 2.576
-0.93360615 -0.184377 2.5746667
-0.93170846 -0.17358381 2.5739999
-0.92745948 -0.17371869 2.576
-0.93419302 -0.16366473 2.5739999
-0.92727947 -0.1637606 2.5755
-0.92354602 -0.15459247 2.5743332
-0.91715735 -0.15132466 2.575
-0.91183197 -0.14630635 2.5739999
-0.90437835 -0.14630635 2.5739999
-0.88201731 -0.13638727 2.5739999
-0.87207913 -0.13142774 2.5739999
-0.7622056 -0.87547112 2.589
-0.75633013 -0.87445664 2.586
-0.74692279 -0.87014645 2.5880001
-0.74192667 -0.86515993 2.5880001
-0.72609556 -0.86415702 2.585
-0.4760251 -0.86315417 2.582
-0.41218147 -0.8601734 2.5880001
-0.40468729 -0.8601734 2.5880001
-0.39469498 -0.8601734 2.5880001
-0.45679343 -0.85950863 2.586
-0.44414189 -0.85419559 2.585
-0.42418242 -0.85170233 2.585
-0.41717762 -0.85518694 2.5880001
-0.81468534 -0.80313873 2.589
-0.82154727 -0.75018013 2.5869999
-0.81607962 -0.75721627 2.5855
-0.83121425 -0.72746825 2.586
-0.8411988 -0.71501154 2.586
-0.83620656 -0.71999419 2.586
-0.84684557 -0.70060503 2.5880001
-0.8971535 -0.69089884 2.589
-0.85019594 -0.69925141 2.5829999
-0.91179538 -0.680659 2.5880001
-0.90255404 -0.68929768 2.5829999
-0.88475871 -0.68903083 2.582
-0.87977415 -0.68903083 2.582
-0.86781514 -0.68445325 2.5834999
-0.85584462 -0.68983144 2.585
-0.91431183 -0.66638541 2.5810001
-0.91073841 -0.65496629 2.585
-0.90915298 -0.6463685 2.5805001
-0.90897679 -0.63878614 2.5799999
-0.90399611 -0.62635839 2.5799999
-0.90399611 -0.61641622 2.5799999
-0.90458012 -0.60437536 2.5816667
-0.91502023 -0.59473699 2.5829999
-0.90897679 -0.59404624 2.5799999
-0.91502023 -0.5847832 2.5829999
-0.90771282 -0.58488965 2.5834999
-0.90897679 -0.57416183 2.5799999
-0.90897679 -0.56670523 2.5799999
-0.9096815 -0.55968207 2.582
-0.90897679 -0.54930633 2.5799999
-0.90399611 -0.52445084 2.5799999
-0.90897679 -0.51947975 2.5799999
-0.91644788 -0.507052 2.5799999
-0.92925966 -0.43016669 2.5810001
-0.92427707 -0.42022064 2.5810001
-0.9271419 -0.38660404 2.589
-0.92463511 -0.37560886 2.582
-0.91965061 -0.36068401 2.582
-0.92642564 -0.35141328 2.5869999
-0.92463511 -0.34575915 2.582
-0.92535138 -0.31615415 2.5840001
-0.92107528 -0.29148555 2.586
-0.93069983 -0.25152698 2.585
-0.9267838 -0.25680539 2.5880001
-0.93177992 -0.24184586 2.5880001
-0.92889959 -0.23612717 2.5799999
-0.93087983 -0.18432128 2.5855
-0.92606753 -0.16193642 2.586
-0.92178768 -0.15707515 2.5880001
-0.91358685 -0.1519711 2.586
-0.90644878 -0.15202986 2.5869999
-0.90110618 -0.14698844 2.586
-0.89379102 -0.14452553 2.5864999
-0.88647199 -0.14206068 2.5869999
-0.88147777 -0.13707611 2.5869999
-0.87648356 -0.13707611 2.5869999
-0.86616021 -0.12705781 2.586
-0.7654416 -0.87132323 2.5914998
-0.75543773 -0.87132323 2.5915
-0.78401065 -0.86500001 2.595
-0.74807721 -0.8664971 2.592
-0.79736835 -0.85583204 2.595
-0.43316796 -0.85217154 2.5940001
-0.42266315 -0.85118598 2.5910001
-0.41464639 -0.85350829 2.5929999
-0.40546909 -0.85434103 2.5929999
-0.39629182 -0.85517377 2.5929999
-0.38794884 -0.85683912 2.5929999
-0.80311972 -0.84402215 2.592
-0.79965538 -0.84565121 2.5969999
-0.4164421 -0.84880632 2.599
-0.40797201 -0.84684682 2.5929999
-0.80519944 -0.83363062 2.5933332
-0.79965538 -0.83814543 2.5969999
-0.80655217 -0.82499993 2.5949998
-0.80631971 -0.81476521 2.5942497
-0.8134411 -0.80188149 2.5929999
-0.8095265 -0.8054648 2.5964999
-0.81594396 -0.79438722 2.5929999
-0.80968237 -0.79561269 2.5969999
-0.81709391 -0.7855292 2.5940001
-0.80968237 -0.78810692 2.5969999
-0.81730175 -0.77406675 2.5946667
-0.81594616 -0.76602918 2.5956666
-0.81594616 -0.75436121 2.5956666
-0.82345271 -0.74442577 2.5929999
-0.81939381 -0.74528611 2.596
-0.82595563 -0.73443353 2.5929999
-0.81970942 -0.73556644 2.5969999
-0.83410716 -0.72250003 2.595
-0.82408786 -0.72750002 2.595
-0.84347582 -0.71195084 2.5929999
-0.83628857 -0.71472448 2.5939999
-0.84412646 -0.70749998 2.595
-0.83507144 -0.70831794 2.598
-0.89422297 -0.6925 2.595
-0.85463953 -0.6954003 2.5964999
-0.87919402 -0.6875 2.595
-0.86383206 -0.68723512 2.5940001
-0.91355693 -0.67697781 2.5929999
-0.91426158 -0.66250002 2.595
-0.91065347 -0.6535058 2.599
-0.90960228 -0.64524949 2.596
-0.90709364 -0.63524181 2.596
-0.90563607 -0.62596339 2.599
-0.90563607 -0.61594796 2.599
-0.90563607 -0.60843641 2.599
-0.91065347 -0.59591711 2.599
-0.90960228 -0.58772641 2.596
-0.91065347 -0.57588631 2.599
-0.91065347 -0.56587088 2.599
-0.91138649 -0.55611724 2.5963333
-0.90744495 -0.5454191 2.5970001
-0.90528768 -0.53561854 2.598
-0.90649158 -0.52450418 2.5966666
-0.9131763 -0.51616377 2.5966666
-0.92195123 -0.50259686 2.5955
-0.91711676 -0.50769556 2.596
-0.92308396 -0.49442163 2.5963333
-0.91694063 -0.48509344 2.5955
-0.92033398 -0.47554913 2.598
-0.92033398 -0.46553758 2.598
-0.9240104 -0.45486873 2.59425
-0.93018579 -0.44542822 2.5974998
-0.93161249 -0.43741572 2.5945001
-0.92714 -0.43266666 2.596
-0.92630571 -0.42599678 2.596
-0.91997969 -0.41531983 2.5969999
-0.91997969 -0.40531212 2.5969999
-0.92303419 -0.3944658 2.5914998
-0.91997969 -0.39530441 2.5969999
-0.92523712 -0.38387057 2.5929999
-0.91997969 -0.3852967 2.5969999
-0.92410278 -0.37492627 2.5945001
-0.91997969 -0.37779093 2.5969999
-0.92392474 -0.36735839 2.5940001
-0.91997969 -0.36277938 2.5969999
-0.92285621 -0.35195667 2.5910001
-0.91962546 -0.35763776 2.596
-0.92499322 -0.34526587 2.5969999
-0.93000674 -0.33275625 2.5969999
-0.92463708 -0.33763006 2.596
-0.92964864 -0.32512522 2.596
-0.92463708 -0.31262043 2.596
-0.92463708 -0.30511755 2.596
-0.91658831 -0.29244363 2.5945001
-0.92428088 -0.28499904 2.595
-0.92392474 -0.27489406 2.5940001
-0.92463708 -0.26760307 2.596
-0.92964864 -0.2525973 2.596
-0.9346602 -0.24759537 2.596
-0.92929053 -0.21250001 2.595
-0.92929053 -0.19499999 2.595
-0.9264276 -0.17493255 2.5939999
-0.92547458 -0.16574791 2.5936668
-0.87317377 -0.13234682 2.592
-0.78290349 -0.87184584 2.608
-0.77816695 -0.87218016 2.609
-0.7574392 -0.87151158 2.6070001
-0.79327703 -0.86212617 2.609
-0.46589285 -0.86715317 2.609
-0.45442182 -0.85948271 2.6010001
-0.43508545 -0.8534379 2.6055002
-0.42527318 -0.85141909 2.6070001
-0.40010908 -0.85141909 2.6070001
-0.39314607 -0.85421896 2.6053333
-0.38464141 -0.85812569 2.6044998
-0.42056274 -0.84704524 2.609
-0.4127717 -0.84655827 2.6075001
-0.40475339 -0.8480891 2.6044998
-0.80335039 -0.83699131 2.609
-0.80389899 -0.81238604 2.6053333
-0.8151598 -0.78596771 2.6065001
-0.81626445 -0.77959728 2.602
-0.81751931 -0.75066859 2.6059999
-0.82223457 -0.73030347 2.605
-0.83069497 -0.72890168 2.5999999
-0.82726353 -0.72528422 2.605
-0.84391886 -0.70678681 2.6046665
-0.8379643 -0.70574856 2.6070001
-0.90269786 -0.69014931 2.605
-0.89870274 -0.69094414 2.608
-0.85492373 -0.69516671 2.605
-0.91135424 -0.6890896 2.6010001
-0.90633303 -0.6890896 2.6010001
-0.89126933 -0.6890896 2.6010001
-0.88624811 -0.6890896 2.6010001
-0.87890059 -0.68618208 2.609
-0.86114192 -0.6890896 2.6010001
-0.91602314 -0.67379576 2.5999999
-0.91473985 -0.66466331 2.6034999
-0.90842378 -0.65049428 2.6070001
-0.90807533 -0.64271104 2.6059999
-0.90668148 -0.60412526 2.602
-0.90633303 -0.58384681 2.6010001
-0.92387646 -0.3743661 2.608
-0.92139673 -0.36834973 2.6010001
-0.92352223 -0.35413006 2.6070001
-0.92677414 -0.31835645 2.602
-0.92104244 -0.2980732 2.5999999
-0.91672778 -0.2983025 2.602
-0.92281371 -0.2886079 2.605
-0.92228234 -0.2759003 2.6034999
-0.92748654 -0.26341042 2.6040001
-0.93233448 -0.20567003 2.6034999
-0.93215543 -0.18556938 2.6030002
-0.92784268 -0.18320328 2.605
-0.92281371 -0.15810694 2.605
-0.91527027 -0.15810694 2.605
-0.90538561 -0.15311706 2.6055
-0.89532578 -0.14809681 2.6055
-0.8854363 -0.14310405 2.6059999
-0.87520611 -0.13554576 2.6055
-0.86616313 -0.1277948 2.6010001
-0.77342659 -0.87251443 2.6099999
-0.76586866 -0.87251443 2.6099999
-0.78752804 -0.86662912 2.615
-0.75327218 -0.86748552 2.6099999
-0.74966699 -0.86914742 2.615
-0.47183207 -0.86881506 2.6140001
-0.7958023 -0.85571909 2.6139998
-0.44642952 -0.85841328 2.6129999
-0.43667471 -0.8540318 2.615
-0.39384314 -0.85167193 2.6155
-0.80045557 -0.84427744 2.6159999
-0.79731852 -0.84866858 2.6139998
-0.43212163 -0.84996724 2.618
-0.42608881 -0.84801924 2.612
-0.40087643 -0.84801924 2.612
-0.80172843 -0.83545154 2.6146667
-0.80236483 -0.82600385 2.6139998
-0.80045557 -0.8165549 2.6159999
-0.80468208 -0.80565184 2.613333
-0.80468208 -0.79558128 2.613333
-0.81245756 -0.78319263 2.6139998
-0.80468208 -0.78802824 2.6133335
-0.81245756 -0.77563775 2.6139998
-0.81245756 -0.7655645 2.6139998
-0.81340313 -0.75642675 2.6143334
-0.81734794 -0.74527502 2.6135001
-0.82002896 -0.73282659 2.6140001
-0.81750387 -0.73786318 2.6139998
-0.83420944 -0.72443831 2.6110001
-0.82491559 -0.72513342 2.6134999
-0.83305985 -0.7139942 2.6126666
-0.82759655 -0.71771675 2.6139998
-0.85030699 -0.70260698 2.6140001
-0.85299087 -0.69770378 2.6145
-0.9126873 -0.68445474 2.612
-0.90320534 -0.68491304 2.61375
-0.8866477 -0.68828613 2.6170001
-0.87520367 -0.6872341 2.6129999
-0.9126873 -0.67438924 2.612
-0.90346378 -0.67503375 2.6145
-0.91184688 -0.6651625 2.612
-0.90311921 -0.66470569 2.6135001
-0.91016603 -0.65677458 2.612
-0.9036361 -0.65500963 2.615
-0.90436292 -0.64569044 2.6146667
-0.90685618 -0.635342 2.6170001
-0.9061631 -0.62477744 2.615
-0.90424746 -0.61538506 2.6143334
-0.91016603 -0.60141426 2.612
-0.90720272 -0.60531795 2.618
-0.91016603 -0.59386516 2.612
-0.90720272 -0.59522927 2.618
-0.91016603 -0.58128321 2.612
-0.90720272 -0.58514065 2.618
-0.91016603 -0.5737341 2.612
-0.90720272 -0.57505202 2.618
-0.91016603 -0.56366861 2.612
-0.90720272 -0.5649634 2.618
-0.91016603 -0.55611944 2.612
-0.9078427 -0.55340111 2.615
-0.90303308 -0.54379886 2.61325
-0.89675194 -0.54205686 2.6170001
-0.90303302 -0.53372616 2.61325
-0.89709461 -0.53721964 2.618
-0.91016603 -0.52089018 2.612
-0.90470952 -0.52498049 2.6156666
-0.9126873 -0.51334107 2.612
-0.90685624 -0.51432371 2.6170001
-0.92193174 -0.5024367 2.612
-0.9126873 -0.50327551 2.612
-0.90685624 -0.50423896 2.6170001
-0.92025095 -0.49572641 2.612
-0.91355842 -0.49368209 2.6145
-0.91599399 -0.48356092 2.6142502
-0.92025095 -0.473079 2.612
-0.91364557 -0.47357732 2.6147499
-0.92025095 -0.46301347 2.612
-0.9126873 -0.4630135 2.612
-0.90685618 -0.46390074 2.6170001
-0.92407161 -0.45234084 2.6114001
-0.9126873 -0.45294797 2.612
-0.90650964 -0.45364159 2.6159999
-0.93033588 -0.44288248 2.612
-0.92277217 -0.44288248 2.612
-0.91303575 -0.44305104 2.6129999
-0.9036361 -0.44591039 2.615
-0.92356491 -0.43318954 2.6142499
-0.92287129 -0.42402181 2.6146667
-0.92166018 -0.41331792 2.6159999
-0.92042708 -0.40269798 2.6125
-0.9171356 -0.40346962 2.6174998
-0.92025095 -0.39255491 2.612
-0.91492468 -0.39231598 2.6159999
-0.92025095 -0.38500577 2.612
-0.9143427 -0.38367021 2.6143332
-0.92060328 -0.3750819 2.6130002
-0.91661 -0.37551445 2.6159999
-0.92060328 -0.36501443 2.6129999
-0.91625965 -0.3602553 2.615
-0.92060328 -0.35746145 2.6129999
-0.92286026 -0.34729359 2.6122499
-0.91625965 -0.34262043 2.615
-0.93033588 -0.33467823 2.612
-0.9226203 -0.33581176 2.6130002
-0.93033588 -0.3271291 2.612
-0.92396498 -0.32641459 2.6129999
-0.92330068 -0.31724566 2.6135001
-0.92286026 -0.3070277 2.6122499
-0.91625965 -0.30483142 2.615
-0.91387677 -0.29620713 2.6129999
-0.92193174 -0.28602827 2.612
-0.91277444 -0.28689474 2.6122499
-0.90581661 -0.2845684 2.6140001
-0.92042708 -0.27685404 2.6125
-0.91286147 -0.27937138 2.6125
-0.92321265 -0.26686391 2.61325
-0.93033588 -0.25667053 2.612
-0.92312455 -0.25676879 2.6129999
-0.93393564 -0.24750674 2.6126666
-0.93645269 -0.23681118 2.615
-0.93573648 -0.22656068 2.6129999
-0.93375051 -0.21661609 2.6145
-0.93051398 -0.20638295 2.6125
-0.92564768 -0.20390461 2.6129999
-0.93033588 -0.19627745 2.612
-0.92312455 -0.1963526 2.6129999
-0.93033588 -0.18872832 2.612
-0.92303646 -0.18626565 2.6127501
-0.92277217 -0.17614643 2.612
-0.9153837 -0.17618063 2.6125
-0.92277217 -0.16608092 2.612
-0.91520852 -0.16608092 2.612
-0.88999611 -0.14846627 2.612
-0.86982626 -0.13336802 2.612
-0.78413224 -0.87380058 2.6289999
-0.7765193 -0.87380058 2.6289999
-0.76593292 -0.87330198 2.6275001
-0.49371138 -0.87686026 2.6229999
-0.48846138 -0.876526 2.622
-0.47888514 -0.87247109 2.625
-0.79428279 -0.86366951 2.6289999
-0.45302895 -0.86136991 2.622
-0.79428279 -0.85353851 2.6289999
-0.79935807 -0.84847301 2.6289999
-0.81303477 -0.75332654 2.6240001
-0.81810039 -0.7356301 2.6240001
-0.82316607 -0.72551835 2.6240001
-0.8339324 -0.71089208 2.6259999
-0.82886291 -0.7159518 2.6259999
-0.84531564 -0.70475721 2.622
-0.83740443 -0.70953858 2.6210001
-0.87041217 -0.69144219 2.6289999
-0.86533684 -0.69144219 2.6289999
-0.85576344 -0.69491804 2.6229999
-0.89745778 -0.68600547 2.62275
-0.87348938 -0.68986416 2.6229999
-0.89983588 -0.67041427 2.6259999
-0.89880788 -0.66459441 2.6229999
-0.9038716 -0.6443786 2.6229999
-0.90525001 -0.63523799 2.6270001
-0.9045608 -0.62716472 2.625
-0.90318245 -0.61358672 2.6210001
-0.91101444 -0.44323218 2.6289999
-0.90593916 -0.44323218 2.6289999
-0.92116505 -0.43816665 2.6289999
-0.91608977 -0.43816665 2.6289999
-0.91539288 -0.38215512 2.6270001
-0.92046434 -0.37203181 2.6270001
-0.91801155 -0.36599228 2.6199999
-0.92046434 -0.35684684 2.6270001
-0.91801155 -0.35084778 2.6199999
-0.92011386 -0.33647206 2.6259999
-0.91836196 -0.31058094 2.6210001
-0.91330212 -0.30048072 2.6210001
-0.90858877 -0.29049131 2.622
-0.90928185 -0.28060117 2.6240001
-0.91670513 -0.27549279 2.6234999
-0.9291901 -0.2501705 2.6229999
-0.93425381 -0.24511656 2.6229999
-0.93407571 -0.22738487 2.6224999
-0.92701161 -0.20729095 2.6240001
-0.91941315 -0.1845395 2.6240001
-0.91434753 -0.17948362 2.6240001
-0.91469592 -0.15932082 2.625
-0.9070946 -0.15679191 2.625
-0.89695942 -0.154263 2.625
-0.88682431 -0.1466763 2.625
-0.87685573 -0.13911608 2.6255
-0.79609555 -0.85040945 2.635
-0.79758722 -0.84342551 2.6343334
-0.79818195 -0.83470041 2.6335001
-0.80133444 -0.82264113 2.6355
-0.79996622 -0.82884103 2.631
-0.80148643 -0.81263965 2.6359999
-0.80148643 -0.80502117 2.6359999
-0.80148643 -0.79740268 2.6359999
-0.81012452 -0.78575146 2.631
-0.80326593 -0.78649807 2.6334999
-0.81012452 -0.77561271 2.631
-0.80326593 -0.77634972 2.6335001
-0.81012452 -0.76547402 2.631
-0.80311394 -0.76605588 2.6329999
-0.81012452 -0.75533527 2.631
-0.80326593 -0.75605249 2.6335001
-0.81266403 -0.74519658 2.631
-0.80581033 -0.7459051 2.6335001
-0.82028282 -0.73252314 2.631
-0.8141284 -0.73646146 2.6330001
-0.82197589 -0.72407418 2.631
-0.81675285 -0.72629666 2.6359999
-0.85075772 -0.70210695 2.631
-0.84664285 -0.7029075 2.6340001
-0.86189771 -0.69275725 2.6340001
-0.89418459 -0.68455851 2.6317501
-0.88732243 -0.68768209 2.6340001
-0.90154922 -0.67676014 2.631
-0.89590836 -0.67592579 2.6343334
-0.90154922 -0.66155201 2.631
-0.89817375 -0.66534686 2.6360002
-0.90154922 -0.65394801 2.631
-0.89885521 -0.65568787 2.638
-0.90438443 -0.64377874 2.6343334
-0.90274847 -0.63451493 2.6345
-0.90394789 -0.62519073 2.638
-0.90449876 -0.61340332 2.6346667
-0.90477413 -0.60371196 2.6329999
-0.90451717 -0.59339863 2.6322501
-0.89851451 -0.59192777 2.6370001
-0.90468848 -0.58336341 2.63275
-0.89919591 -0.5872919 2.6389999
-0.9051168 -0.57349133 2.6340001
-0.9051168 -0.56334102 2.6340001
-0.9042697 -0.55403596 2.6340001
-0.89817369 -0.54345274 2.6359999
-0.90154922 -0.53481793 2.631
-0.89647007 -0.53481793 2.631
-0.90324229 -0.52636898 2.631
-0.89749229 -0.52781308 2.6339998
-0.9040888 -0.51707518 2.631
-0.89647007 -0.51707518 2.631
-0.90392351 -0.5056054 2.632
-0.89732188 -0.50741571 2.6335001
-0.91170752 -0.49679768 2.631
-0.90494543 -0.49473023 2.6335001
-0.91340059 -0.48581406 2.631
-0.90550643 -0.48612073 2.6326666
-0.91170752 -0.47652024 2.631
-0.90494549 -0.47697303 2.6335001
-0.90417451 -0.46642604 2.6312499
-0.9040888 -0.4562428 2.631
-0.90223455 -0.44644123 2.6329999
-0.92186582 -0.43343064 2.631
-0.91340059 -0.43512043 2.631
-0.905509 -0.43708542 2.6326668
-0.92186582 -0.42582661 2.631
-0.9142471 -0.42582661 2.631
-0.90800673 -0.42647398 2.635
-0.92186582 -0.41568786 2.631
-0.91424704 -0.41568786 2.631
-0.90800673 -0.41631985 2.635
-0.91450703 -0.40566403 2.6317501
-0.90800673 -0.40870425 2.635
-0.91351604 -0.39630571 2.6313334
-0.90800673 -0.39347303 2.635
-0.91170752 -0.38527167 2.631
-0.90800673 -0.3858574 2.635
-0.91485351 -0.37538221 2.63275
-0.9143337 -0.36502916 2.6312499
-0.90766215 -0.36541331 2.6340001
-0.9142471 -0.35485548 2.631
-0.90662837 -0.35485548 2.631
-0.9142471 -0.34471676 2.631
-0.9074899 -0.34504384 2.6335001
-0.92186582 -0.33204335 2.631
-0.91567248 -0.33563519 2.6326668
-0.92186582 -0.32443932 2.631
-0.91783208 -0.32480925 2.6340001
-0.92186582 -0.31683525 2.631
-0.91765785 -0.31459969 2.6335001
-0.91409367 -0.30523798 2.6330001
-0.91170752 -0.29655781 2.631
-0.90766221 -0.29182082 2.6340001
-0.90731752 -0.28410017 2.6329999
-0.92186582 -0.271211 2.631
-0.91340059 -0.27290079 2.631
-0.92186582 -0.26360694 2.631
-0.91424704 -0.26360694 2.631
-0.92355889 -0.25262332 2.631
-0.91442031 -0.2535159 2.6315
-0.93371719 -0.24248458 2.631
-0.92449301 -0.24335237 2.6312499
-0.91713512 -0.24595761 2.632
-0.93371719 -0.23403566 2.631
-0.92484337 -0.23330179 2.6322498
-0.93371719 -0.22220713 2.631
-0.92475581 -0.2231368 2.632
-0.93202412 -0.21544798 2.631
-0.92572039 -0.21386607 2.6323333
-0.922041 -0.20281358 2.6315
-0.91442132 -0.20027794 2.6315
-0.90697294 -0.200316 2.632
-0.92186582 -0.19263583 2.631
-0.91424704 -0.19263583 2.631
-0.90697294 -0.19270906 2.632
-0.9142471 -0.1850318 2.631
-0.90697294 -0.18256646 2.632
-0.91351604 -0.176605 2.6313334
-0.90938509 -0.17542484 2.6389999
-0.91424704 -0.16728902 2.631
-0.90697294 -0.1673526 2.632
-0.9040888 -0.15968497 2.631
-0.89647007 -0.15968497 2.631
-0.88377219 -0.14701156 2.631
-0.87615347 -0.14447688 2.631
-0.80452698 -0.75199419 2.6459999
-0.80602449 -0.74331087 2.6453333
-0.81412745 -0.73614258 2.6440001
-0.82594979 -0.72004145 2.641
-0.81954151 -0.72113198 2.645
-0.84507239 -0.71093929 2.645
-0.83486003 -0.71603566 2.645
-0.88114864 -0.69081503 2.6459999
-0.85702753 -0.69753802 2.6424999
-0.89035422 -0.68493927 2.6429999
-0.88424712 -0.68924856 2.6400001
-0.89545655 -0.67475432 2.6429999
-0.89545655 -0.66966182 2.6429999
-0.90141076 -0.64480591 2.6455002
-0.90021813 -0.63377458 2.642
-0.90226257 -0.6148054 2.648
-0.89953673 -0.60786128 2.6400001
-0.90226257 -0.59949905 2.648
-0.9073745 -0.43623123 2.648
-0.90972978 -0.39930639 2.6400001
-0.91214192 -0.37996435 2.6470001
-0.91655886 -0.33381021 2.645
-0.91517282 -0.31295088 2.641
-0.9107635 -0.29791039 2.6429999
-0.9107635 -0.27754045 2.6429999
-0.92061967 -0.24180155 2.642
-0.9155193 -0.24689209 2.642
-0.92607045 -0.21133815 2.6429999
-0.92131662 -0.2063237 2.6440001
-0.91331464 -0.20624566 2.6429999
-0.9034518 -0.16556841 2.6440001
-0.8934117 -0.15540896 2.6445
-0.88320124 -0.15031359 2.6445
-0.80092955 -0.83003372 2.651
-0.80244011 -0.82392287 2.6559999
-0.80244011 -0.8136878 2.6559999
-0.80213803 -0.8031503 2.655
-0.80213803 -0.79291904 2.655
-0.80153382 -0.7846542 2.6530001
-0.80183589 -0.77983624 2.654
-0.8140319 -0.73581409 2.652
-0.80726349 -0.73920518 2.655
-0.81751448 -0.72897398 2.655
-0.85210717 -0.70233625 2.651
-0.87422389 -0.69342577 2.6559999
-0.86746043 -0.69212043 2.651
-0.85884166 -0.69854331 2.6559999
-0.89304924 -0.68190461 2.651
-0.8940599 -0.67500293 2.654
-0.90053862 -0.66321963 2.658
-0.89918339 -0.66733527 2.654
-0.90019983 -0.65785068 2.6570001
-0.90259409 -0.64493012 2.6564999
-0.90122813 -0.63348395 2.655
-0.90328473 -0.62316382 2.651
-0.899014 -0.62375385 2.6535001
-0.89816701 -0.612948 2.651
-0.90328473 -0.60528612 2.651
-0.89713478 -0.60233366 2.6530001
-0.89587802 -0.59411269 2.6543334
-0.90328473 -0.58485454 2.651
-0.89702255 -0.58692485 2.6526668
-0.90328473 -0.57719266 2.651
-0.89628184 -0.57762671 2.6529999
-0.90236932 -0.56491524 2.6533334
-0.899014 -0.56750917 2.6535001
-0.90311438 -0.5566566 2.6505001
-0.89986098 -0.5450173 2.6559999
-0.90019983 -0.53498363 2.6570001
-0.89986098 -0.53989977 2.6559999
-0.89986098 -0.51687086 2.6559999
-0.90328473 -0.50312811 2.651
-0.90328473 -0.49546629 2.651
-0.90225643 -0.48476329 2.6530001
-0.90413654 -0.4754841 2.6535001
-0.90464765 -0.4655202 2.655
-0.90464765 -0.45528901 2.655
-0.90464765 -0.44505781 2.655
-0.90589929 -0.43375692 2.6536667
-0.90715092 -0.42502153 2.6523333
-0.9084025 -0.41373989 2.651
-0.91215974 -0.4040525 2.6545
-0.90977317 -0.39390171 2.655
-0.9094305 -0.38352603 2.654
-0.91352028 -0.37543064 2.651
-0.90908784 -0.37315896 2.6529999
-0.9064399 -0.36290056 2.65275
-0.9092592 -0.352777 2.6535001
-0.9094305 -0.34261656 2.654
-0.91352028 -0.33712137 2.651
-0.91739291 -0.32792133 2.6523335
-0.91642469 -0.31680924 2.652
-0.91403717 -0.3066479 2.6525002
-0.9090879 -0.28625819 2.6530001
-0.91352028 -0.27327263 2.651
-0.9090879 -0.27603468 2.6530001
-0.91352028 -0.26561081 2.651
-0.9090879 -0.26581118 2.6530001
-0.91386485 -0.25549036 2.652
-0.9090879 -0.25814354 2.6530001
-0.91568565 -0.24445118 2.6523333
-0.92375582 -0.23496339 2.651
-0.91642374 -0.23505203 2.652
-0.9242785 -0.22487429 2.6525002
-0.9242785 -0.21465367 2.6525002
-0.91607916 -0.21453179 2.651
-0.90874517 -0.21461272 2.652
-0.90692443 -0.20351607 2.6516666
-0.90601397 -0.1941368 2.6515
-0.89317763 -0.19212428 2.6589999
-0.90783358 -0.1849695 2.6543334
-0.90681082 -0.17283942 2.6513333
-0.89816701 -0.17111464 2.651
-0.89646107 -0.16260149 2.651
-0.81226444 -0.73630154 2.6630001
-0.83477318 -0.72036707 2.661
-0.82768726 -0.72090852 2.6630001
-0.81997782 -0.72603953 2.6630001
-0.8508234 -0.71064645 2.6630001
-0.84631753 -0.71631503 2.665
-0.85146236 -0.70604527 2.665
-0.88407576 -0.69255543 2.6624999
-0.86351109 -0.69512284 2.6624999
-0.89094597 -0.68934494 2.6600001
-0.8967548 -0.66934681 2.6619999
-0.90274084 -0.65200436 2.6645
-0.89877605 -0.60916764 2.668
-0.89195079 -0.58237094 2.6630001
-0.90121627 -0.50996149 2.6600001
-0.90121627 -0.49971101 2.6600001
-0.901555 -0.47426301 2.661
-0.90907723 -0.42410403 2.668
-0.91388518 -0.40852892 2.6670001
-0.90703279 -0.37185934 2.6619999
-0.90873653 -0.35714161 2.6670001
-0.91765535 -0.32325625 2.6630001
-0.91182917 -0.29481214 2.661
-0.9217568 -0.22807322 2.6600001
-0.9169662 -0.22815897 2.661
-0.90737361 -0.20780636 2.6630001
-0.89485717 -0.1976185 2.664
-0.89742857 -0.16682081 2.664
-0.8922857 -0.15655492 2.664
-0.88747585 -0.15661368 2.665
-0.81531465 -0.73391616 2.6729999
-0.81789672 -0.7287659 2.6730001
-0.84981084 -0.71411562 2.6760001
-0.85949999 -0.70327747 2.674
-0.88113612 -0.6937505 2.677
-0.87498647 -0.69297302 2.674
-0.8961376 -0.68562764 2.6754999
-0.89664 -0.67827648 2.677
-0.90079731 -0.66205972 2.674
-0.89978665 -0.66646338 2.671
-0.9018079 -0.65506649 2.677
-0.89978665 -0.64330447 2.671
-0.90147108 -0.6316185 2.6760001
-0.89978665 -0.63558477 2.671
-0.89821333 -0.62341809 2.6739998
-0.89768887 -0.61420077 2.675
-0.89664 -0.60348558 2.677
-0.89630508 -0.59552604 2.6760001
-0.89597011 -0.58499324 2.6750002
-0.89768887 -0.57296693 2.675
-0.90079731 -0.56674182 2.674
-0.90312237 -0.55628347 2.6732502
-0.90147108 -0.54654336 2.6760001
-0.90262842 -0.53503948 2.6743336
-0.90262842 -0.52644926 2.6743336
-0.90147108 -0.51818502 2.6760001
-0.90629822 -0.50768304 2.675
-0.90423745 -0.49547079 2.674
-0.9038837 -0.48458141 2.6754999
-0.90595949 -0.47142774 2.674
-0.90629822 -0.46387282 2.675
-0.90629822 -0.45356452 2.675
-0.90337598 -0.44309151 2.6739998
-0.90229154 -0.43353629 2.6733332
-0.90356112 -0.42645538 2.6720002
-0.91009945 -0.41686127 2.671
-0.90595949 -0.41732949 2.674
-0.91129196 -0.40710068 2.6745
-0.90765345 -0.40004334 2.6789999
-0.9102698 -0.39635018 2.6715
-0.90595949 -0.39414451 2.674
-0.91061056 -0.38619798 2.6725001
-0.90595949 -0.38899231 2.674
-0.91112161 -0.37868786 2.674
-0.90595949 -0.36323121 2.674
-0.91112161 -0.35292679 2.674
-0.91112161 -0.34519845 2.674
-0.9131887 -0.33470616 2.6725001
-0.91576982 -0.32440799 2.6725001
-0.91399264 -0.31494701 2.6723335
-0.91387838 -0.30289531 2.6719999
-0.91078091 -0.29356647 2.6730001
-0.91078091 -0.28326589 2.6730001
-0.91078091 -0.27296531 2.6730001
-0.91078091 -0.26266474 2.6730001
-0.91301835 -0.25484395 2.6719999
-0.912848 -0.24707514 2.6715
-0.91267759 -0.23673603 2.671
-0.90528184 -0.23939884 2.6719999
-0.92299032 -0.22386995 2.671
-0.91267765 -0.22644317 2.671
-0.91009945 -0.21615028 2.671
-0.90494305 -0.21615028 2.671
-0.89720845 -0.21357708 2.671
-0.90494305 -0.20585743 2.671
-0.89720845 -0.20585741 2.671
-0.90494305 -0.19556454 2.671
-0.91009945 -0.18269846 2.671
-0.90494305 -0.18527168 2.671
-0.8967303 -0.18497591 2.6742001
-0.91009945 -0.17755203 2.671
-0.90494305 -0.17755203 2.671
-0.89806789 -0.17412107 2.6710002
-0.88947392 -0.17240559 2.671
-0.89463031 -0.16468593 2.671
-0.88689578 -0.16468593 2.671
-0.84685427 -0.7211532 2.6830001
-0.83131564 -0.7211532 2.6830001
-0.82323843 -0.72605205 2.6820002
-0.85266888 -0.71134394 2.6849999
-0.8623929 -0.70047498 2.6830001
-0.85721338 -0.70564455 2.6830001
-0.89347011 -0.69013584 2.6830001
-0.88619161 -0.69310355 2.6845
-0.87485379 -0.69233191 2.6815
-0.86757243 -0.69530541 2.6830001
-0.89831465 -0.67437571 2.6819999
-0.90032429 -0.63445085 2.688
-0.90551353 -0.42210403 2.688
-0.91070271 -0.41174567 2.688
-0.9079923 -0.36921003 2.6800001
-0.91036391 -0.35981986 2.687
-0.91418821 -0.32568401 2.6830001
-0.91452897 -0.31287476 2.684
-0.91350675 -0.30735934 2.681
-0.90900874 -0.24555396 2.6830001
-0.89127022 -0.69245082 2.6919999
-0.89386868 -0.68467045 2.6919999
-0.88372034 -0.68486059 2.69275
-0.90166408 -0.67170328 2.6919999
-0.89403427 -0.67442149 2.6924996
-0.90166408 -0.66392291 2.6919999
-0.89469641 -0.66453952 2.6945
-0.90166408 -0.65354908 2.6919999
-0.89469641 -0.65415603 2.6945
-0.90166408 -0.6431753 2.6919999
-0.89469641 -0.6437726 2.6945
-0.89729977 -0.6333878 2.6945
-0.89746624 -0.62311947 2.6950002
-0.89813226 -0.61319077 2.697
-0.89410615 -0.60328966 2.6953335
-0.89561844 -0.5962171 2.6946666
-0.89813226 -0.58720809 2.697
-0.89813226 -0.57681501 2.697
-0.90166408 -0.56537187 2.6919999
-0.89796579 -0.56631744 2.6965001
-0.90233397 -0.55540848 2.694
-0.89846522 -0.55883431 2.698
-0.90300387 -0.54543352 2.6960001
-0.90300387 -0.53504431 2.6960001
-0.90300387 -0.5246551 2.6960001
-0.90493244 -0.51388437 2.694
-0.90339637 -0.50399357 2.6920002
-0.89796579 -0.50397062 2.6965001
-0.90361905 -0.49374053 2.6926668
-0.89779925 -0.49608481 2.6960001
-0.90406507 -0.48360372 2.6940002
-0.90546352 -0.47650644 2.6930001
-0.90476489 -0.46708089 2.6935
-0.90476489 -0.45670134 2.6935
-0.90166408 -0.4460732 2.6919999
-0.89796567 -0.44682032 2.6964998
-0.90166408 -0.4356994 2.6919999
-0.89746618 -0.43618494 2.6949999
-0.901999 -0.42548263 2.6929998
-0.89746618 -0.42839596 2.6949999
-0.90476489 -0.41518307 2.6935
-0.91205788 -0.40717146 2.6919999
-0.90451372 -0.40469098 2.69275
-0.89879823 -0.40302986 2.6989999
-0.90426248 -0.39420423 2.6919999
-0.89713323 -0.3944971 2.694
-0.91205788 -0.38383043 2.6919999
-0.90546495 -0.38483718 2.6930001
-0.91205788 -0.37605008 2.6919999
-0.90736634 -0.37366521 2.6935
-0.90719789 -0.36581215 2.6930001
-0.91222727 -0.35277504 2.6925001
-0.90719789 -0.35024568 2.6930001
-0.91205788 -0.34492871 2.6919999
-0.90719789 -0.34505686 2.6930001
-0.91205788 -0.33714837 2.6919999
-0.90753478 -0.33739883 2.694
-0.91205788 -0.32677454 2.6919999
-0.90753478 -0.32701737 2.694
-0.91205788 -0.31640077 2.6919999
-0.90719789 -0.31651831 2.6930001
-0.91205788 -0.30602697 2.6919999
-0.90719789 -0.30614066 2.6930001
-0.91239673 -0.29576302 2.6930001
-0.91222727 -0.2853319 2.6925001
-0.90719789 -0.28797978 2.6930001
-0.91239673 -0.27500772 2.6930001
-0.91205788 -0.26453179 2.6919999
-0.90686095 -0.26193833 2.6919999
-0.91205788 -0.25415799 2.6919999
-0.90426248 -0.25415799 2.6919999
-0.90686095 -0.24378419 2.6919999
-0.90166408 -0.17894797 2.6919999
-0.89646715 -0.17894797 2.6919999
-0.9021284 -0.42540175 2.7090001
-0.90390784 -0.38329047 2.7065001
-0.8991313 -0.38757226 2.7
-0.90434366 -0.37196532 2.7
-0.91157722 -0.36236417 2.7060001
-0.90635329 -0.36757806 2.7060001
-0.90711725 -0.35382223 2.7005
-0.90635329 -0.34672254 2.7060001
-0.91022968 -0.29414836 2.7019999
-0.91056663 -0.28384104 2.7030001
-0.91056663 -0.26821676 2.7030001
-0.90534848 -0.26300868 2.7030001
-0.90279436 -0.49362138 2.711
-0.90346044 -0.48614454 2.7130001
-0.90346044 -0.4756898 2.7130001
-0.89593339 -0.47586513 2.714
-0.90346044 -0.46523505 2.7130001
-0.89702702 -0.46639243 2.7146666
-0.90346044 -0.45739403 2.7130001
-0.89618027 -0.4550744 2.7147501
-0.89593339 -0.44448942 2.714
-0.89593339 -0.43403083 2.714
-0.90346044 -0.4208025 2.7130001
-0.89680696 -0.42444381 2.714
-0.90346044 -0.41296148 2.7130001
-0.89855409 -0.41311464 2.714
-0.89560425 -0.40512043 2.7130001
-0.88807529 -0.40004045 2.714
-0.89560425 -0.39727938 2.7130001
-0.88807529 -0.39481118 2.714
-0.89576882 -0.38689595 2.7135
-0.90520626 -0.37724116 2.7130001
-0.89669722 -0.37733364 2.7136667
-0.90531731 -0.36508861 2.7133334
-0.89855403 -0.36866474 2.714
-0.90531731 -0.35637572 2.7133334
-0.90520626 -0.34413457 2.7130001
-0.89658689 -0.34417662 2.7133334
-0.90607917 -0.33455107 2.7130001
-0.8983885 -0.33461225 2.7135
-0.90607917 -0.32409632 2.7130001
-0.89855403 -0.3242158 2.714
-0.90607917 -0.31364161 2.7130001
-0.89855403 -0.31375724 2.714
-0.91393536 -0.30057323 2.7130001
-0.90616244 -0.30321458 2.7132502
-0.89822298 -0.30580059 2.7130001
-0.90607917 -0.29273218 2.7130001
-0.89822298 -0.29011852 2.7130001
-0.90607917 -0.28489113 2.7130001
-0.91393536 -0.27705008 2.7130001
-0.90607917 -0.27705008 2.7130001
-0.90520626 -0.2674666 2.7130001
-0.89822298 -0.2639817 2.7130001
-0.90346044 -0.25614065 2.7130001
-0.89822298 -0.25614065 2.7130001
-0.88774806 -0.25614065 2.7130001
-0.8952896 -0.41140655 2.72
-0.89003861 -0.40616572 2.72
-0.90087163 -0.35388729 2.721
-0.89561874 -0.3486445 2.721
-0.89726448 -0.33878034 2.7260001
