# .PCD v0.7 - Point Cloud Data file format
VERSION 0.7
FIELDS x y z
SIZE 4 4 4
TYPE F F F
COUNT 1 1 1
WIDTH 260
HEIGHT 1
VIEWPOINT 0 0 0 1 0 0 0
POINTS 260
DATA ascii
-0.15214865 0.099362232 1.946
-0.15214865 0.10498651 1.946
-0.14839189 0.10311175 1.946
-0.16341892 0.11810982 1.946
-0.15214865 0.11061079 1.946
-0.17093243 0.1331079 1.946
-0.16717568 0.1331079 1.946
-0.21612452 0.18944798 1.947
-0.21612452 0.19507515 1.947
-0.21733977 0.20566861 1.9466667
-0.20484845 0.23446532 1.947
-0.18323262 0.088611752 1.957
-0.17756563 0.088611752 1.957
-0.18417712 0.095210508 1.957
-0.17693597 0.094896279 1.9570001
-0.16434266 0.096153185 1.9569999
-0.15527549 0.095399037 1.957
-0.14828619 0.096153177 1.957
-0.16434266 0.10557996 1.9569999
-0.15678668 0.10557996 1.957
-0.18323262 0.11500674 1.957
-0.17340985 0.11576089 1.957
-0.16488238 0.1139294 1.9569999
-0.15678668 0.11123603 1.957
-0.17315798 0.12506199 1.9570001
-0.16812065 0.12443353 1.957
-0.18323262 0.1338603 1.9570001
-0.17614891 0.1338603 1.9569999
-0.16812065 0.13386032 1.957
-0.19267762 0.14517246 1.9569999
-0.18512161 0.14517246 1.9569999
-0.17567664 0.14517246 1.9569999
-0.20212258 0.15648459 1.957
-0.19456661 0.15459923 1.9569999
-0.18512161 0.15459923 1.957
-0.17567664 0.15459923 1.9569999
-0.20306708 0.1649687 1.957
-0.19456661 0.16402602 1.9569999
-0.18512161 0.16402602 1.9569999
-0.17693597 0.16276911 1.9569999
-0.20306708 0.17628083 1.957
-0.19456661 0.17533815 1.9569999
-0.18512164 0.17533815 1.9569999
-0.17756563 0.1772235 1.957
-0.22101255 0.18665029 1.957
-0.2147159 0.18539339 1.9570001
-0.20590056 0.18476494 1.9569999
-0.19456661 0.18476494 1.9569999
-0.18575127 0.18413649 1.9570001
-0.21345657 0.19419171 1.9570001
-0.20590056 0.19419171 1.9569999
-0.19409436 0.19419171 1.9569999
-0.1870106 0.19419171 1.9570001
-0.22667953 0.20927458 1.957
-0.21440107 0.20550385 1.957
-0.20590056 0.20550384 1.9569999
-0.19510631 0.2044265 1.9569999
-0.18701062 0.20173314 1.957
-0.22290154 0.21493064 1.957
-0.21534556 0.21493064 1.957
-0.20590059 0.21493064 1.9569999
-0.19844595 0.21692678 1.9579999
-0.22290157 0.22435741 1.9569999
-0.21534558 0.22435743 1.9569999
-0.20590056 0.22435743 1.9569999
-0.19685328 0.22362582 1.9572001
-0.22101255 0.23189884 1.957
-0.2147159 0.23315574 1.9570001
-0.2052709 0.23441266 1.9569999
-0.19742496 0.2347565 1.9572501
-0.191861 0.087213874 1.9680001
-0.18521236 0.086265907 1.9680001
-0.17286487 0.087213874 1.9680001
-0.16526641 0.087213874 1.9680001
-0.15576835 0.089109831 1.9680001
-0.191861 0.094797686 1.9680001
-0.18806179 0.096693642 1.9680001
-0.17539769 0.094165705 1.9680001
-0.14247105 0.096693642 1.9680001
-0.19186099 0.10427746 1.9680001
-0.18426256 0.10475145 1.9680002
-0.1747645 0.10427746 1.9680001
-0.19511749 0.11673658 1.9680002
-0.18426256 0.11565318 1.9680002
-0.1766641 0.11186127 1.9680001
-0.20452511 0.12576494 1.9680001
-0.19566023 0.12513296 1.9680001
-0.18426256 0.12513296 1.9680001
-0.1766641 0.123237 1.9680001
-0.20325869 0.13461272 1.9680001
-0.19566023 0.13461272 1.9680002
-0.18806179 0.13461272 1.9680001
-0.20515831 0.14598845 1.9680001
-0.19945948 0.14598845 1.9680001
-0.21085715 0.15546821 1.9680001
-0.20579152 0.15483622 1.9680001
-0.21237683 0.16570637 1.9680001
-0.20705792 0.16305202 1.9680001
-0.1766641 0.16873989 1.9680001
-0.21275675 0.17442775 1.9680001
-0.20705792 0.17442775 1.9680001
-0.18046333 0.1725318 1.9680001
-0.1766641 0.1725318 1.9680001
-0.22236776 0.18400097 1.969
-0.21465637 0.1813796 1.9680001
-0.20695271 0.19518401 1.967
-0.19945946 0.19528325 1.9680001
-0.18806179 0.20665896 1.9680001
-0.22979489 0.2160843 1.9675
-0.19457474 0.21424279 1.9680002
-0.22985329 0.2256185 1.9680001
-0.19566023 0.22941041 1.9680001
-0.17765154 0.085794799 1.979
-0.20057432 0.10867341 1.979
-0.19675386 0.10676686 1.979
-0.20439479 0.11439306 1.979
-0.19675386 0.11248651 1.979
-0.21203572 0.12773892 1.979
-0.20694177 0.12138375 1.979
-0.21203572 0.13536513 1.979
-0.20821525 0.13536513 1.979
-0.21394596 0.14489788 1.979
-0.21490107 0.15347736 1.979
-0.21585618 0.16205683 1.979
-0.21967664 0.17730924 1.979
-0.21967664 0.18112235 1.979
-0.19784749 0.093940273 1.99
-0.20425032 0.10672125 1.9900001
-0.19784749 0.10160886 1.99
-0.20937259 0.11311176 1.99
-0.21321429 0.12269749 1.99
-0.21705599 0.13803467 1.99
-0.22089769 0.14762042 1.99
-0.22089769 0.15528902 1.9900001
-0.22089769 0.16487476 1.99
-0.22217827 0.17446049 1.9900001
-0.22473939 0.1821291 1.99
-0.20290542 0.090649329 2.0020001
-0.19904055 0.094506748 2.0020001
-0.20483786 0.10222159 2.0020001
-0.21439286 0.11759248 2.0009999
-0.21831033 0.12726253 2.0015001
-0.21825579 0.13301444 2.0009999
-0.22217423 0.14268833 2.0015001
-0.2260946 0.15236802 2.0020001
-0.22603813 0.16582707 2.0015001
-0.22598165 0.17349711 2.0009999
-0.20531563 0.097611755 2.013
-0.21179247 0.10472254 2.013
-0.21567857 0.11344942 2.013
-0.21956468 0.1221763 2.013
-0.22345078 0.13575146 2.013
-0.22733687 0.16096243 2.013
-0.23122297 0.17647688 2.013
-0.23122297 0.18035549 2.013
-0.21305503 0.099494226 2.0250001
-0.20914577 0.095592491 2.0250001
-0.21696429 0.10534683 2.0250001
-0.22087356 0.11510116 2.0250001
-0.22467181 0.12674373 2.0239999
-0.22467181 0.13064355 2.0239999
-0.23260136 0.16972545 2.0250001
-0.24041989 0.17557804 2.0250001
-0.23513031 0.17486995 2.0243332
-0.24041989 0.18143064 2.0250001
-0.23639381 0.18134104 2.0239999
-0.21038513 0.088309243 2.0369999
-0.2122471 0.09415029 2.036
-0.22207336 0.10788054 2.036
-0.21814285 0.10003468 2.036
-0.22207336 0.11180347 2.036
-0.22993436 0.14710982 2.036
-0.22993436 0.15495569 2.036
-0.23386487 0.16672447 2.036
-0.24375048 0.17461222 2.0365
-0.23779537 0.1706474 2.036
-0.24565637 0.18241619 2.036
-0.21547492 0.088786133 2.0480001
-0.22338225 0.096678235 2.0480001
-0.2181107 0.094047539 2.0480001
-0.22338225 0.10259731 2.0480001
-0.23128958 0.14205781 2.0480001
-0.23524326 0.15586899 2.0480001
-0.24326931 0.16778901 2.049
-0.23791796 0.16510308 2.0483334
-0.25105792 0.17954528 2.0480001
-0.24710426 0.17362621 2.0480001
-0.22071429 0.087321773 2.0599999
-0.22469111 0.093275525 2.0599999
-0.22866794 0.10915221 2.0599999
-0.22866794 0.12304431 2.0599999
-0.23264478 0.13495183 2.0599999
-0.23662162 0.14685935 2.0599999
-0.24059846 0.15479767 2.0599999
-0.24460497 0.16374783 2.06025
-0.25259024 0.17468545 2.0605001
-0.25650579 0.18059729 2.0599999
-0.226 0.087830439 2.072
-0.23 0.095815033 2.072
-0.23 0.10379961 2.072
-0.23 0.11577649 2.072
-0.23537163 0.12843962 2.0723333
-0.23800001 0.13573796 2.072
-0.23800001 0.1417264 2.072
-0.24611872 0.15777168 2.073
-0.25 0.16568016 2.072
-0.25800002 0.17765704 2.072
-0.23144305 0.090390176 2.085
-0.23546815 0.10645954 2.085
-0.23543052 0.11447656 2.0846667
-0.23742424 0.12450819 2.0845001
-0.24351834 0.13458093 2.085
-0.24340156 0.14656262 2.0840001
-0.24340156 0.15057804 2.0840001
-0.25156853 0.16270232 2.085
-0.25748265 0.17266282 2.0840001
-0.23277508 0.08686994 2.0969999
-0.22872682 0.082829475 2.0969999
-0.23682335 0.096971095 2.0969999
-0.23682335 0.10303178 2.0969999
-0.24087161 0.11515317 2.0969999
-0.24087161 0.1232341 2.0969999
-0.24626929 0.13535549 2.0969999
-0.24491987 0.1434364 2.0969999
-0.24890879 0.15350047 2.0964999
-0.2570647 0.165658 2.0970001
-0.23421814 0.083342962 2.1099999
-0.23817857 0.091430634 2.109
-0.24225 0.10768497 2.109
-0.24643821 0.11993255 2.1099999
-0.24637982 0.12600048 2.1094999
-0.25254825 0.13416184 2.1099999
-0.25043243 0.14428002 2.1093333
-0.2647683 0.17481695 2.1099999
-0.26667857 0.18082948 2.109
-0.2438581 0.079765894 2.1229999
-0.2438581 0.083856449 2.1229999
-0.23964672 0.085861266 2.122
-0.24374324 0.096082851 2.122
-0.24374324 0.1022158 2.122
-0.24783976 0.11652601 2.122
-0.253342 0.12744926 2.1223333
-0.25603282 0.13288054 2.122
-0.25603282 0.14514643 2.122
-0.26025191 0.1574865 2.1229999
-0.25603282 0.15536802 2.122
-0.26422587 0.16967823 2.122
-0.25591215 0.16142486 2.1210001
-0.26832238 0.17376685 2.122
-0.27241892 0.18194412 2.122
-0.24523649 0.088444121 2.135
-0.24729729 0.09461464 2.135
-0.2493581 0.102842 2.135
-0.25347972 0.11723989 2.135
-0.2493581 0.1131262 2.135
-0.25622749 0.12272479 2.135
-0.26384509 0.16458526 2.1355
-0.28246331 0.17491329 2.1359999
-0.27578861 0.17568651 2.1354001
-0.26996621 0.17071773 2.135
