# .PCD v0.7 - Point Cloud Data file format
VERSION 0.7
FIELDS x y z
SIZE 4 4 4
TYPE F F F
COUNT 1 1 1
WIDTH 139
HEIGHT 1
VIEWPOINT 0 0 0 1 0 0 0
POINTS 139
DATA ascii
-0.45456433 -0.23605716 2.7326667
-0.46358368 -0.22563839 2.734
-0.45390734 -0.22651637 2.734
-0.45390734 -0.21598072 2.734
-0.45390734 -0.20544508 2.734
-0.44323045 -0.20538801 2.7332499
-0.43543437 -0.20281117 2.734
-0.42968434 -0.20258863 2.7309999
-0.45398986 -0.19494557 2.7345002
-0.44335136 -0.19490944 2.734
-0.43279538 -0.19490944 2.734
-0.42464525 -0.19480106 2.7325001
-0.40640539 -0.19227552 2.734
-0.39805114 -0.19206454 2.7309999
-0.45407337 -0.18444027 2.7350001
-0.44335136 -0.1843738 2.734
-0.43279538 -0.1843738 2.734
-0.42487836 -0.1843738 2.734
-0.41768757 -0.18342741 2.7329998
-0.40640539 -0.1843738 2.734
-0.39653602 -0.18340592 2.7326667
-0.44335136 -0.17383814 2.734
-0.43279538 -0.17383815 2.734
-0.42487836 -0.17383814 2.734
-0.41665637 -0.17634298 2.7320001
-0.40640539 -0.17383814 2.734
-0.39812404 -0.17367871 2.7315001
-0.44258046 -0.16422094 2.7346668
-0.43279538 -0.16330251 2.734
-0.42487836 -0.16593641 2.734
-0.41401932 -0.16581504 2.7320001
-0.40610814 -0.16581504 2.7320001
-0.39790541 -0.16569364 2.73
-0.38529342 -0.16330251 2.734
-0.4426879 -0.15371934 2.7353334
-0.43367505 -0.15188889 2.734
-0.38529342 -0.15276685 2.734
-0.43279538 -0.14486513 2.734
-0.38543338 -0.14491811 2.7350001
-0.41432238 -0.13432948 2.734
-0.40552571 -0.13608544 2.734
-0.39584941 -0.1369634 2.734
-0.38543338 -0.13701349 2.7350001
-0.37390316 -0.13610244 2.7343333
-0.43319255 -0.12654191 2.7364998
-0.4160817 -0.12554978 2.734
-0.40640539 -0.12642774 2.734
-0.39584941 -0.12642774 2.734
-0.3853634 -0.12645134 2.7345002
-0.37473744 -0.12642774 2.734
-0.41603056 -0.11675561 2.7336667
-0.40629417 -0.11586104 2.7332501
-0.39577752 -0.11850433 2.7335
-0.38515252 -0.11848266 2.733
-0.37543371 -0.11671419 2.7326667
-0.36418146 -0.1158921 2.734
-0.50662935 -0.17737572 2.7479999
-0.46283785 -0.17685935 2.74
-0.5068137 -0.1615501 2.7490001
-0.46812743 -0.16630058 2.74
-0.52254438 -0.15090173 2.7479999
-0.55046815 -0.21498556 2.7550001
-0.54986876 -0.20944895 2.7520001
-0.53885138 -0.17220616 2.75
-0.51323843 -0.17251928 2.7550001
-0.48602751 -0.17495039 2.7515001
-0.5390473 -0.16431791 2.7509999
-0.52330506 -0.1617264 2.7520001
-0.51580358 -0.16452748 2.7545002
-0.5050782 -0.16715029 2.7540002
-0.49361682 -0.1654011 2.7543335
-0.48385549 -0.16451132 2.75425
-0.47334945 -0.16190271 2.7550001
-0.53697783 -0.15388344 2.7539999
-0.52880985 -0.1511763 2.753
-0.50260139 -0.15128614 2.7550001
-0.49373713 -0.15305556 2.7550001
-0.48398653 -0.15394029 2.7550001
-0.47334945 -0.15394029 2.7550001
-0.53678286 -0.14321965 2.753
-0.50223649 -0.14587186 2.753
-0.49462357 -0.14332372 2.7550001
-0.48398653 -0.14332372 2.7550001
-0.47334945 -0.14332372 2.7550001
-0.50526065 -0.13270715 2.7550001
-0.49462357 -0.13270715 2.7550001
-0.4839865 -0.13270715 2.7550001
-0.47334945 -0.13270715 2.7550001
-0.46271238 -0.13270715 2.7550001
-0.50526065 -0.12474471 2.7550001
-0.49462357 -0.12474471 2.7550001
-0.4839865 -0.12474471 2.7550001
-0.47334945 -0.12474471 2.7550001
-0.46271238 -0.12474471 2.7550001
-0.44908977 -0.12465414 2.753
-0.53717184 -0.11412814 2.7550001
-0.50526065 -0.11678228 2.7550001
-0.49462357 -0.11678228 2.7550001
-0.4839865 -0.11678228 2.7550001
-0.47423586 -0.11766699 2.7550001
-0.46508691 -0.11759795 2.7533333
-0.45456949 -0.11939306 2.7539999
-0.44635183 -0.11932804 2.7525001
-0.53717184 -0.1061657 2.7550001
-0.52648723 -0.10615631 2.75475
-0.51589769 -0.10616571 2.7550001
-0.50526065 -0.10616571 2.7550001
-0.49462357 -0.1061657 2.7550001
-0.4839865 -0.10616571 2.7550001
-0.47566313 -0.10609056 2.753
-0.53717184 -0.095549136 2.7550001
-0.52716506 -0.09461689 2.7536666
-0.51672202 -0.096421964 2.7546666
-0.50526065 -0.095549136 2.7550001
-0.49462357 -0.095549136 2.7550001
-0.48446333 -0.096352607 2.7526665
-0.5265348 -0.084932566 2.7550001
-0.51589769 -0.084932566 2.7550001
-0.50526065 -0.084932566 2.7550001
-0.49462357 -0.084932566 2.7550001
-0.48602751 -0.084825143 2.7515001
-0.55196667 -0.19693978 2.7624998
-0.54712838 -0.19711947 2.7650001
-0.54732627 -0.18653178 2.766
-0.54752409 -0.17860211 2.767
-0.55719888 -0.14102697 2.7620001
-0.54752409 -0.13328516 2.767
-0.54752409 -0.12528805 2.767
-0.54752409 -0.11995664 2.767
-0.54831564 -0.17352119 2.7709999
-0.54841459 -0.16554192 2.7715001
-0.54871142 -0.15494508 2.773
-0.54851353 -0.11483237 2.7720001
-0.56022489 -0.10701349 2.777
-0.55486387 -0.10701349 2.777
-0.54851353 -0.10682082 2.7720001
-0.56022489 -0.096312135 2.777
-0.55486387 -0.096312135 2.777
-0.54851353 -0.096138731 2.7720001
