# .PCD v0.7 - Point Cloud Data file format
VERSION 0.7
FIELDS x y z
SIZE 4 4 4
TYPE F F F
COUNT 1 1 1
WIDTH 330
HEIGHT 1
VIEWPOINT 0 0 0 1 0 0 0
POINTS 330
DATA ascii
0.43903378 0.27884683 1.969
0.51289576 0.2957688 1.9680001
0.49959847 0.30904046 1.9680001
0.51194596 0.30430058 1.9680001
0.5112558 0.31299132 1.969
0.44635746 0.27517888 1.979
0.46036583 0.27454334 1.979
0.48519886 0.27644989 1.979
0.49474999 0.27644989 1.979
0.43616953 0.28661817 1.979
0.44545007 0.28448096 1.9785
0.45463514 0.28407612 1.979
0.46418628 0.28455275 1.979
0.47564772 0.28407609 1.9789999
0.48519886 0.28407609 1.979
0.49475002 0.28407609 1.9789999
0.41834074 0.29932851 1.979
0.42652747 0.29660487 1.979
0.43553281 0.29551539 1.979
0.44508398 0.29551542 1.9789999
0.45463514 0.29551542 1.979
0.46418631 0.29551542 1.9789999
0.47564772 0.29551542 1.9789999
0.48519889 0.29551539 1.979
0.49475002 0.29551542 1.9789999
0.50532794 0.29500151 1.9755557
0.51419884 0.29081792 1.973
0.41452026 0.30504814 1.979
0.42598164 0.30504814 1.979
0.43553281 0.30504817 1.979
0.44508401 0.30504814 1.979
0.45463514 0.30504817 1.979
0.46418631 0.30504814 1.979
0.47564769 0.30504817 1.979
0.48519886 0.30504817 1.979
0.49482793 0.30557472 1.9771429
0.50580299 0.30528912 1.9752856
0.40687934 0.31076783 1.979
0.42216119 0.31076783 1.979
0.43591484 0.31381831 1.9789999
0.44508395 0.31458092 1.9789999
0.45463514 0.31458095 1.979
0.46418631 0.31458095 1.9789999
0.47564772 0.31458095 1.9789999
0.48519883 0.31458095 1.979
0.49414647 0.31497809 1.9785
0.43744305 0.32220712 1.979
0.44508398 0.32602024 1.979
0.45463514 0.32602021 1.979
0.46418631 0.32602024 1.9789999
0.47564766 0.32602024 1.9789999
0.48519886 0.32602021 1.979
0.49419212 0.32565606 1.9767778
0.43362257 0.33364642 1.979
0.45463514 0.33555299 1.979
0.46418628 0.33555296 1.979
0.47564769 0.33555296 1.979
0.48519886 0.33555299 1.979
0.41834074 0.34889883 1.979
0.42598164 0.3488988 1.979
0.43489608 0.34762779 1.979
0.44603908 0.34794554 1.979
0.45463514 0.34508574 1.979
0.46418631 0.34508574 1.9789999
0.47564766 0.34508568 1.9789999
0.48519883 0.34508574 1.979
0.49092951 0.34508571 1.979
0.41834074 0.35271195 1.979
0.42693675 0.35366523 1.979
0.43489608 0.35398296 1.979
0.44508401 0.35461852 1.979
0.45463514 0.35461849 1.979
0.46418628 0.35271195 1.979
0.47564769 0.35461846 1.979
0.48519883 0.35461849 1.979
0.42980212 0.3622447 1.979
0.43553281 0.36415124 1.979
0.44508398 0.36415127 1.9789999
0.45463514 0.36415124 1.979
0.46036583 0.36605781 1.979
0.47946814 0.36033815 1.979
0.48519883 0.36415124 1.979
0.44508395 0.37177745 1.979
0.46418628 0.40990844 1.979
0.47373745 0.40990847 1.979
0.44890442 0.41562814 1.979
0.45463514 0.41562814 1.979
0.46418628 0.41562811 1.979
0.47373748 0.41562814 1.979
0.44890442 0.42134777 1.979
0.45463514 0.42134777 1.979
0.46527785 0.42461616 1.979
0.47373745 0.42516088 1.979
0.46609652 0.43278709 1.979
0.47373745 0.43469363 1.979
0.44913128 0.27277458 1.98
0.45578378 0.27714837 1.984
0.46918917 0.27714837 1.984
0.47652638 0.27696213 1.9826666
0.46535906 0.28097108 1.984
0.40831852 0.31569365 1.9859999
0.41466385 0.31254888 1.9842501
0.42492858 0.31521967 1.983
0.43267214 0.31574664 1.9863334
0.43766409 0.32618499 1.98
0.44260135 0.32318401 1.985
0.45026544 0.32318401 1.985
0.43638995 0.33381501 1.98
0.4464334 0.33657032 1.985
0.45543677 0.33614886 1.9825001
0.37669593 0.34543449 1.9809999
0.38560858 0.34465173 1.9875
0.3929826 0.34247977 1.9859999
0.4153581 0.34641877 1.9830002
0.42535713 0.34613198 1.985
0.4345721 0.34456968 1.9833335
0.44515607 0.3448571 1.985
0.45026544 0.34230733 1.985
0.37764671 0.35013294 1.9859999
0.40831852 0.35395694 1.9860001
0.41471893 0.35582617 1.9835999
0.42514285 0.35742581 1.984
0.43854827 0.35742581 1.984
0.46504375 0.3571856 1.9826666
0.43876931 0.36143064 1.985
0.46645156 0.36456746 1.9854
0.47559196 0.36388946 1.9827499
0.43854827 0.37271675 1.984
0.44429344 0.3765395 1.984
0.45381156 0.37458116 1.9837501
0.46152896 0.37271675 1.984
0.45839092 0.40773699 1.987
0.45401672 0.41108224 1.9846667
0.44981179 0.42602023 1.983
0.45532432 0.42580539 1.982
0.46071476 0.42739162 1.9805
0.46381515 0.43619752 1.9815
0.45716217 0.27415222 1.99
0.46676642 0.27606937 1.99
0.41682434 0.31632948 1.99
0.42066604 0.31632948 1.99
0.40914091 0.32016379 1.99
0.41490349 0.32399806 1.9899999
0.42450774 0.32447734 1.9899999
0.4337278 0.32476494 1.99
0.44371623 0.32783237 1.99
0.45139962 0.32783237 1.99
0.39761582 0.33933526 1.99
0.40657976 0.33677903 1.9899999
0.41490349 0.33550096 1.9899999
0.42450774 0.33550099 1.99
0.43449616 0.33550096 1.99
0.4437162 0.33550096 1.9900001
0.45139965 0.33550096 1.9900001
0.3873713 0.34572574 1.9900001
0.39633524 0.34572574 1.9900001
0.40529922 0.34508669 1.9899999
0.41490346 0.34316957 1.99
0.42642859 0.34316957 1.99
0.43603283 0.34316957 1.99
0.44371623 0.34316957 1.99
0.36798844 0.35574183 1.9960001
0.3764641 0.35574374 1.9960001
0.386691 0.35430455 1.9906249
0.39569497 0.35467243 1.9899999
0.40337837 0.35467243 1.9899999
0.38682866 0.36367679 1.9938332
0.39569497 0.3642582 1.99
0.40529922 0.3642582 1.9899999
0.41490346 0.3642582 1.99
0.42450777 0.3642582 1.9899999
0.38888466 0.37084633 1.9944999
0.3944993 0.37455928 1.9912499
0.40529922 0.37384391 1.99
0.41490349 0.37384391 1.9899999
0.42450774 0.37384391 1.99
0.43493518 0.3743917 1.9899999
0.38874498 0.38492662 1.9918
0.39569497 0.3853468 1.9899999
0.40529922 0.38534683 1.99
0.41490349 0.3853468 1.9899999
0.42450774 0.38534683 1.99
0.43603283 0.38534683 1.99
0.44563711 0.38534686 1.9899999
0.38993242 0.39493257 1.99
0.39569497 0.39493257 1.99
0.40529919 0.39493254 1.9899999
0.41490346 0.39493257 1.99
0.42450774 0.3949326 1.9899999
0.4360328 0.3949326 1.9899999
0.44563711 0.39493257 1.99
0.38993242 0.40451828 1.9900001
0.39569497 0.40451828 1.9899999
0.40552613 0.40474632 1.9911112
0.41490349 0.40451834 1.9899999
0.42450774 0.40451831 1.99
0.43603283 0.40451828 1.99
0.44563708 0.40451828 1.9899999
0.38320947 0.41514161 1.995
0.39464429 0.41498539 1.9911666
0.40176016 0.41441572 1.9915
0.41490349 0.41602123 1.9899999
0.42450774 0.41602117 1.99
0.43603283 0.4160212 1.99
0.44563711 0.41602123 1.9899999
0.38263321 0.42411563 1.992
0.39387324 0.42438883 1.9932858
0.40239897 0.42468786 1.9946667
0.4140799 0.42633414 1.9916
0.42450777 0.42560697 1.9899999
0.43603286 0.42560697 1.9899999
0.44563711 0.42560694 1.99
0.35983059 0.43787909 1.9935
0.39461076 0.43420112 1.9942501
0.40626931 0.43464413 1.9909999
0.41490349 0.43519267 1.9899999
0.42450774 0.4351927 1.99
0.43603286 0.4351927 1.99
0.44586101 0.43541333 1.9910001
0.4055042 0.44409046 1.9933749
0.41490346 0.44477841 1.99
0.42450774 0.44477841 1.9899999
0.43603286 0.44477844 1.9899999
0.41490349 0.45436415 1.9899999
0.42450774 0.45436415 1.99
0.4346194 0.45489562 1.9923334
0.41490349 0.46586704 1.9899999
0.4240275 0.46538776 1.9899999
0.43514881 0.46580139 1.993
0.40975773 0.4780896 1.993
0.41412106 0.47549772 1.9918
0.42376161 0.47377264 1.9909999
0.43476641 0.4723295 1.993
0.40955213 0.485526 1.992
0.41467571 0.48424533 1.992
0.42119449 0.48372784 1.9925001
0.41682434 0.49462429 1.99
0.42461535 0.49474856 1.9905
0.43603286 0.49462429 1.9899999
0.40732193 0.50817198 1.9905
0.41568339 0.50565577 1.9906667
0.42506748 0.50430453 1.9903749
0.43603283 0.50421 1.99
0.40737334 0.51398969 1.9907501
0.4146027 0.51505011 1.9904
0.42453125 0.51574188 1.990111
0.43603283 0.51571292 1.99
0.39781564 0.52748072 1.9910001
0.40538621 0.52458918 1.9904286
0.41490346 0.52529866 1.99
0.42479149 0.52373219 1.9913334
0.43433011 0.52364451 1.9910001
0.38628477 0.53898942 1.9910001
0.39646849 0.53634173 1.9906667
0.40392512 0.53356534 1.9908001
0.41511196 0.531317 1.9910001
0.4208774 0.53323603 1.9909999
0.39397201 0.54474378 1.9910001
0.39397201 0.55049807 1.9910001
0.40165928 0.55049807 1.9910001
0.37388897 0.36156937 2.007
0.38184944 0.36697495 2.0013332
0.38522795 0.37612799 2.0021665
0.38227201 0.38462061 2.0022001
0.38442472 0.39525375 2.0013335
0.38442469 0.40489408 2.0013332
0.38430625 0.41385454 2.0007141
0.39575291 0.41811174 2
0.40774328 0.41660118 2.0020001
0.41140249 0.41639304 2.0009999
0.38343647 0.42509073 2.0001998
0.39575291 0.42967245 2
0.40767536 0.42617309 2.0016668
0.41140249 0.42410403 2.0009999
0.36706796 0.43507513 2.0035999
0.37333202 0.43825433 2.0039999
0.38510618 0.43506166 2.0020001
0.39595076 0.4356705 2.0009999
0.40753955 0.4356705 2.0009999
0.36743581 0.44200534 2.0035
0.37195367 0.44471097 2.007
0.38419196 0.445189 2.002625
0.39561558 0.44499424 2.00175
0.40041313 0.44983813 2.0039999
0.36172587 0.45756069 2.0039999
0.3700164 0.45824566 2.007
0.38397345 0.45466426 2.0040002
0.39409718 0.45513877 2.0046668
0.40581083 0.45517534 2.0020001
0.41140249 0.45494795 2.0009999
0.38087934 0.46119171 2.003
0.39480698 0.46165225 2.0050001
0.40503973 0.46433362 2.0022857
0.41140249 0.4645867 2.0009999
0.39451015 0.47674811 2.0035
0.40465134 0.47484821 2.0020001
0.39476022 0.48507243 2.0028
0.40387839 0.484106 2.0020001
0.38880694 0.49617341 2.0039999
0.39492634 0.49704722 2.0023334
0.40387836 0.49567822 2.0020001
0.39267567 0.50003469 2.0039999
0.40460986 0.50488502 2.0018001
0.39634654 0.51522255 2.003
0.40194595 0.51496536 2.0020001
0.38841894 0.52460885 2.0020001
0.39608204 0.52644992 2.0016668
0.40194595 0.52268016 2.0020001
0.3874042 0.53514957 2.00175
0.39498758 0.53472668 2.0017142
0.3852886 0.54499906 2.0018001
0.39529574 0.54648674 2.0016
0.38841894 0.5554682 2.0020001
0.39513248 0.55539912 2.00175
0.38841894 0.56125438 2.0020001
0.39614868 0.56125438 2.0020001
0.3751277 0.36665025 2.0136666
0.37769887 0.37114358 2.0170002
0.38240057 0.37778899 2.0109999
0.37889478 0.38591811 2.0129998
0.37927127 0.39407036 2.0150001
0.3672365 0.42664742 2.013
0.37500608 0.42470682 2.013
0.37593052 0.43461847 2.0109999
0.36705408 0.44775724 2.0120001
0.37734845 0.44639146 2.0116665
0.36772299 0.45633817 2.0156667
0.37528414 0.45499748 2.0118752
0.36529633 0.46349421 2.013
0.3748832 0.46334073 2.0123332
