# .PCD v0.7 - Point Cloud Data file format
VERSION 0.7
FIELDS x y z
SIZE 4 4 4
TYPE F F F
COUNT 1 1 1
WIDTH 590
HEIGHT 1
VIEWPOINT 0 0 0 1 0 0 0
POINTS 590
DATA ascii
0.19663803 -0.0051647397 1.7869999
0.19253571 -0.0051936419 1.7970001
0.26538706 0.084829479 1.7970001
0.20592955 -0.064447016 1.8080001
0.18673359 -0.033094414 1.808
0.19442616 -0.033937864 1.8065
0.20221621 -0.033057805 1.806
0.17965348 -0.026112715 1.807
0.18673359 -0.022643546 1.808
0.19359326 -0.026111633 1.806875
0.20265484 -0.026109826 1.8068001
0.17955406 -0.019138727 1.806
0.18666475 -0.015671805 1.8073334
0.1935 -0.01565896 1.806
0.20398818 -0.016095616 1.8062499
0.18642373 -0.0017389209 1.8049999
0.19273359 -0.0078333328 1.8069999
0.20047297 -0.0086994218 1.806
0.26671621 0.067855492 1.806
0.2702027 0.067855492 1.806
0.26830888 0.083466277 1.8050001
0.27035233 0.081819847 1.807
0.1946065 -0.075243093 1.8163333
0.20300753 -0.074537769 1.8161999
0.19461818 -0.064747803 1.8164444
0.20296273 -0.064724661 1.8158001
0.1946065 -0.050745342 1.8163333
0.20158301 -0.050736029 1.816
0.18461253 -0.042751998 1.8165715
0.19455929 -0.043735489 1.8158889
0.20390171 -0.043151092 1.8158334
0.21210039 -0.040238921 1.816
0.18337317 -0.035344701 1.8162
0.19271237 -0.036719654 1.8150001
0.20576762 -0.035830684 1.81425
0.21210039 -0.034990367 1.816
0.25255501 -0.033259153 1.8169999
0.17621477 -0.025375724 1.8164999
0.18531409 -0.026922351 1.8146
0.19435714 -0.026213873 1.814
0.20658615 -0.026210262 1.81375
0.21516795 -0.025805395 1.816
0.2475666 -0.029790943 1.819
0.2508021 -0.028006744 1.8169999
0.17704247 -0.019244701 1.816
0.18395269 -0.017484587 1.8150001
0.20486294 -0.012233141 1.814
0.21556725 -0.019241169 1.8156667
0.18755984 -0.0069980733 1.816
0.27515221 0.06705042 1.8156667
0.2681438 0.075216122 1.8156667
0.27497059 0.075164855 1.8144447
0.28646365 0.075271674 1.817
0.27585849 0.086117253 1.8137141
0.28530157 0.085597508 1.8133333
0.29273358 0.087475911 1.816
0.18855824 -0.10377232 1.8256668
0.19553572 -0.10021677 1.8250002
0.18738256 -0.095563591 1.8256668
0.19553572 -0.09494219 1.8249999
0.20522442 -0.094063103 1.825
0.18619065 -0.085002087 1.8255
0.19551191 -0.086141191 1.8247778
0.20508274 -0.086647116 1.824857
0.18499938 -0.07561592 1.8253332
0.19542857 -0.075560696 1.824
0.20576641 -0.07898844 1.822
0.17492734 -0.064058766 1.8252857
0.18496622 -0.065052986 1.8249999
0.20934121 -0.064962909 1.8225
0.21315154 -0.06153661 1.825
0.17439671 -0.054503854 1.8249999
0.18496624 -0.054503858 1.8249999
0.19548213 -0.056247111 1.8245
0.2065035 -0.054932684 1.8246249
0.21315154 -0.054503858 1.825
0.17484905 -0.043518431 1.825125
0.18320464 -0.047471099 1.825
0.20826383 -0.045085419 1.8233333
0.214287 -0.043946695 1.8246666
0.24662162 -0.040438343 1.825
0.17801738 -0.035183042 1.826
0.21649662 -0.03513632 1.8235
0.22377086 -0.034820233 1.8254
0.23429054 -0.035163775 1.8249999
0.24483736 -0.035160724 1.8248333
0.2551477 -0.035126206 1.823
0.17439672 -0.028131023 1.825
0.21983591 -0.029840078 1.822
0.22540091 -0.026363842 1.8243333
0.23484969 -0.02738288 1.8254286
0.24491753 -0.026378201 1.8254284
0.22536004 -0.019329481 1.824
0.29129827 0.019382466 1.829
0.27702317 0.03522158 1.8279999
0.2800917 0.035163775 1.825
0.29626834 0.036962427 1.827
0.30189094 0.037002891 1.829
0.27503139 0.043990847 1.8264999
0.28317448 0.04439427 1.8249999
0.29425517 0.043964576 1.8254446
0.3012307 0.043954719 1.8250002
0.26996523 0.054593448 1.8279999
0.27488175 0.054518789 1.8255
0.28361487 0.054503858 1.8249999
0.29418436 0.054503858 1.8249999
0.30211148 0.055382952 1.825
0.34703186 0.058020234 1.825
0.35201401 0.055472545 1.8279999
0.26952222 0.063294798 1.825
0.2752426 0.062673092 1.824
0.283997 0.06459935 1.8246249
0.29418439 0.065052986 1.8249999
0.30357948 0.064466923 1.8249999
0.34703186 0.065052986 1.8250002
0.35182193 0.065122351 1.827
0.28299323 0.077190749 1.821
0.29491574 0.075028762 1.8232857
0.30475387 0.075602122 1.8249999
0.31180021 0.07736031 1.825
0.32495657 0.078004174 1.8263334
0.34703186 0.075602122 1.8250002
0.35162985 0.076524563 1.826
0.29666555 0.085226879 1.8240001
0.30458796 0.086102113 1.824
0.31532335 0.08615125 1.8249999
0.3239218 0.086893842 1.8257999
0.34703186 0.086151265 1.8250002
0.3540782 0.08615125 1.8249999
0.36464769 0.08615125 1.8249999
0.37487987 0.086613677 1.8255
0.38236824 0.087933049 1.8255
0.38226351 0.093184009 1.825
0.15578379 -0.14311561 1.834
0.15412548 -0.13968337 1.8353333
0.16127026 -0.13796437 1.836
0.17908977 -0.12565222 1.837
0.16845077 -0.11857322 1.837
0.17530876 -0.11488043 1.8345555
0.18543582 -0.11440415 1.8339999
0.19472972 -0.113079 1.834
0.20367102 -0.1134817 1.8348
0.21260667 -0.11493978 1.8355
0.17531918 -0.1042826 1.8346666
0.18410812 -0.1042447 1.834
0.19568551 -0.10560097 1.8329999
0.20456095 -0.10473383 1.8337142
0.21184234 -0.10188889 1.834
0.17531916 -0.093677588 1.8346666
0.18375406 -0.092936799 1.834
0.20689575 -0.09707129 1.832
0.21416442 -0.097159602 1.8336667
0.17531918 -0.084840082 1.8346666
0.18233784 -0.086576104 1.834
0.16835909 -0.076057799 1.836
0.17525676 -0.075974949 1.8339999
0.16817567 -0.067140654 1.834
0.17348649 -0.068907514 1.834
0.2175058 -0.061772641 1.832
0.21671067 -0.054735787 1.8327501
0.22132401 -0.054781955 1.8343334
0.17171621 -0.047705203 1.834
0.2175058 -0.045888245 1.832
0.22406796 -0.04204239 1.8336
0.2319054 -0.040637765 1.834
0.24842793 -0.045349389 1.834
0.25484991 -0.044160407 1.8334999
0.26111487 -0.043288052 1.834
0.17525676 -0.035337187 1.834
0.22457916 -0.037063584 1.832
0.25612935 -0.037023123 1.83
0.26442122 -0.035683237 1.8336
0.23354924 -0.022956647 1.8329999
0.24226256 -0.022944124 1.832
0.27085134 -0.022969171 1.834
0.23610349 -0.018017728 1.8336
0.24436438 -0.019440752 1.8345001
0.27262163 -0.015901733 1.834
0.27262163 -0.0053005777 1.834
0.28455096 -0.0031834296 1.8355999
0.29999131 -0.0017716762 1.839
0.27394933 0.0057422933 1.8339999
0.28508171 0.0053010061 1.8344443
0.29563513 0.0070674368 1.834
0.30376643 0.0061849714 1.835
0.27616215 0.015901733 1.834
0.28501353 0.015901731 1.8339999
0.29601726 0.015456046 1.8336248
0.30524516 0.016406549 1.8339999
0.31509075 0.018289657 1.8373333
0.32306755 0.019488439 1.839
0.27616215 0.024736032 1.834
0.28501353 0.024736032 1.834
0.29563513 0.024736032 1.834
0.30625677 0.024736032 1.834
0.31510812 0.024736032 1.834
0.32263079 0.024769749 1.8365
0.27439189 0.033570327 1.834
0.28589192 0.033048995 1.8331426
0.29512936 0.032560695 1.8339999
0.30661583 0.033118498 1.8334999
0.31510809 0.033570323 1.834
0.32239807 0.033628516 1.8371999
0.27085134 0.044171482 1.834
0.28808203 0.040571291 1.831
0.30769303 0.044123311 1.8319999
0.31510809 0.044171482 1.834
0.32405865 0.044183794 1.8345555
0.33473471 0.045958415 1.8348331
0.34669337 0.046570648 1.8356667
0.35444209 0.045988441 1.836
0.27085134 0.054772638 1.834
0.30797878 0.05399422 1.8316
0.31510809 0.054772642 1.834
0.32395947 0.054772642 1.8339999
0.33458108 0.054772642 1.8339999
0.34452268 0.054293115 1.83275
0.35630935 0.053079478 1.8365
0.30816925 0.066456646 1.8313333
0.31499419 0.065350026 1.8333334
0.32395947 0.065373786 1.8339999
0.33458108 0.065373786 1.8339999
0.34305596 0.065302506 1.8319999
0.35582432 0.065373793 1.834
0.36014867 0.067287095 1.8380001
0.31547683 0.07496725 1.831
0.32266152 0.07476943 1.8333334
0.33450085 0.075956538 1.8335555
0.34305599 0.075892098 1.8319999
0.35764357 0.075985312 1.83425
0.36483932 0.0771861 1.8348333
0.37388343 0.077815272 1.8357501
0.38143823 0.079682082 1.8380001
0.32678571 0.082861274 1.83
0.33446074 0.084777772 1.8333334
0.34333476 0.085756063 1.8316
0.3825869 0.083087668 1.835
0.16197297 -0.15100193 1.844
0.16402027 -0.14452928 1.8429998
0.14773358 -0.13678998 1.844
0.15493727 -0.13686417 1.8449999
0.16437483 -0.13444477 1.8443333
0.16601025 -0.12660152 1.844375
0.17560314 -0.1249369 1.8438333
0.18318292 -0.1242529 1.8425
0.16699266 -0.11478575 1.8444
0.20624807 -0.11534875 1.842
0.21579632 -0.11542706 1.8432858
0.16927606 -0.10492677 1.8460001
0.21638207 -0.10591217 1.8424999
0.22371782 -0.10246275 1.8443333
0.23711486 -0.10142486 1.847
0.24028957 -0.10126012 1.844
0.16927606 -0.09425626 1.8460001
0.22224903 -0.097601153 1.842
0.16808753 -0.083585106 1.8460001
0.253847 -0.084451348 1.8455
0.16580212 -0.076513484 1.847
0.2512413 -0.076472059 1.846
0.16571236 -0.069358379 1.846
0.26738536 -0.065828755 1.84675
0.2580888 -0.053294796 1.844
0.26283526 -0.052702632 1.844
0.27648649 -0.053410403 1.848
0.28160763 -0.051588148 1.8465
0.26659098 -0.044346578 1.8412501
0.27510038 -0.043292228 1.8466667
0.28362164 -0.042728327 1.848
0.27526814 -0.033762045 1.8446
0.28490275 -0.031989165 1.8447499
0.27645078 -0.025213296 1.8430001
0.28482601 -0.024874035 1.84425
0.29028475 -0.023106936 1.845
0.24549711 -0.015979769 1.8429999
0.27914479 -0.015973024 1.842
0.28526795 -0.015286321 1.8448
0.29190731 -0.014211945 1.844
0.27899325 -0.0053208093 1.841
0.28635779 -0.0076942835 1.8426666
0.29461336 -0.0058364989 1.8434285
0.30427247 -0.0053289295 1.8434286
0.31233108 -0.0035626204 1.849
0.2788417 0.0017726397 1.84
0.29514867 0.0017745665 1.842
0.3051081 0.0029556837 1.8413334
0.3145619 0.0063425549 1.8441428
0.32505429 0.0079978323 1.8452499
0.33284557 0.0088824658 1.844
0.34014961 0.0053323698 1.845
0.31463784 0.013837379 1.8416001
0.32587305 0.014811336 1.8448334
0.33263007 0.016023362 1.8477499
0.35459074 0.018672448 1.846
0.32928571 0.024870906 1.844
0.3349379 0.025532112 1.849
0.34070271 0.026705204 1.848
0.35420465 0.024870904 1.844
0.36488417 0.024870904 1.844
0.32839572 0.033753373 1.844
0.33618724 0.033776253 1.8452499
0.34308109 0.03382659 1.848
0.35420462 0.033753376 1.8440001
0.36488414 0.033753373 1.8440001
0.37200385 0.037306357 1.844
0.3364054 0.040859345 1.844
0.34511486 0.044384394 1.8429999
0.35420465 0.040859345 1.844
0.3645381 0.043981209 1.8444999
0.37260908 0.042705201 1.847
0.36471295 0.055556234 1.8453748
0.36598688 0.065237127 1.8444287
0.37366316 0.068184011 1.8463334
0.36666411 0.07283622 1.844
0.37576738 0.074060053 1.8449999
0.38463771 0.077488758 1.842
0.16987211 -0.14456022 1.8525
0.17046814 -0.14506647 1.859
0.14845464 -0.13388729 1.853
0.15569304 -0.13217308 1.8540001
0.1697804 -0.13556311 1.8515
0.17438948 -0.13388872 1.853
0.18035714 -0.13010597 1.85
0.15756708 -0.12509586 1.855
0.16285135 -0.12324277 1.854
0.20915444 -0.12310982 1.852
0.21630502 -0.12310982 1.8519999
0.1629831 -0.11797929 1.8555
0.22435036 -0.11507948 1.8519999
0.15927219 -0.10895376 1.854
0.16646042 -0.10539981 1.8543334
0.22587936 -0.10766762 1.8523334
0.23361814 -0.10390791 1.8532
0.24398005 -0.10419267 1.8540001
0.16652027 -0.094715804 1.855
0.2269083 -0.098078035 1.851
0.2326448 -0.098236993 1.854
0.16652027 -0.085780352 1.855
0.25418967 -0.083973505 1.8545001
0.26306754 -0.08215896 1.854
0.27432191 -0.085895471 1.8575001
0.16634074 -0.073191717 1.853
0.25646138 -0.076969177 1.858
0.26327801 -0.075078517 1.8555
0.27384242 -0.074135602 1.85425
0.2809633 -0.073231213 1.854
0.30276448 -0.073310211 1.8559999
0.26392642 -0.066077791 1.85375
0.2748476 -0.066091798 1.8541429
0.28454244 -0.066086702 1.8539999
0.29499617 -0.065118358 1.8554286
0.30260137 -0.062548168 1.855
0.26632264 -0.056196291 1.8517499
0.27318355 -0.056555394 1.8538333
0.28487757 -0.056357283 1.852857
0.29527995 -0.055369943 1.8539999
0.30325386 -0.055519268 1.8589998
0.26978859 -0.048147399 1.851
0.27475128 -0.045803789 1.8523334
0.28429991 -0.045127578 1.8524286
0.29527995 -0.044653177 1.8539999
0.30436537 -0.044671644 1.8548332
0.31043145 -0.046564545 1.859
0.27355632 -0.032713231 1.8523334
0.28338104 -0.035690993 1.8522501
0.29456636 -0.034934349 1.8527143
0.36632884 -0.033998072 1.8573333
0.29107144 -0.026734104 1.85
0.28392857 -0.019605011 1.85
0.29464287 -0.016040463 1.85
0.31675482 -0.0035722542 1.854
0.32391313 -0.0035722542 1.854
0.33470711 -0.0053671896 1.8571428
0.34180889 -0.0035722542 1.854
0.31658399 0.0017851638 1.853
0.32472056 0.0026782274 1.8535
0.33500633 0.0043352596 1.8531429
0.34477124 0.0062581887 1.8555
0.35472009 0.0071522156 1.8559999
0.33822975 0.016075144 1.854
0.34610185 0.016107097 1.8578333
0.35504052 0.014280346 1.853
0.36403728 0.016789403 1.8542
0.3703422 0.017855972 1.8535
0.33822972 0.023219652 1.854
0.34580272 0.024626974 1.8524001
0.34750772 0.033881504 1.851
0.3482143 0.040992294 1.85
0.37442663 0.047084779 1.8559999
0.37482047 0.05539884 1.855
0.38179633 0.059037574 1.857
0.3764073 0.063705198 1.854
0.3844153 0.066549614 1.8544999
0.38296911 0.073231213 1.854
0.17433783 -0.14350772 1.862
0.15473358 -0.12390751 1.864
0.16013128 -0.12031599 1.864
0.22813417 -0.12012234 1.8609999
0.23389961 -0.12031599 1.864
0.16133076 -0.11433012 1.864
0.22801158 -0.11647399 1.86
0.23561583 -0.11488792 1.8633332
0.24431241 -0.11443449 1.8656665
0.25076351 -0.11343642 1.869
0.15995947 -0.10583622 1.862
0.16364188 -0.10589114 1.8629999
0.23536293 -0.10938472 1.8613334
0.24631853 -0.10826654 1.8626666
0.2544108 -0.10810481 1.864
0.26376182 -0.10692124 1.86525
0.25673744 -0.080635838 1.86
0.26472989 -0.084885836 1.8614999
0.27254611 -0.083492056 1.86375
0.30628136 -0.080917627 1.8664999
0.26419884 -0.075339116 1.862
0.2713919 -0.077134877 1.862
0.30626157 -0.073636033 1.8642
0.31201786 -0.072004333 1.8685
0.29655406 -0.069959536 1.862
0.30464092 -0.066373318 1.862
0.31458589 -0.064377844 1.8666
0.32292566 -0.063020229 1.869
0.30761293 -0.055659279 1.8636667
0.31520483 -0.055726394 1.8660001
0.32292566 -0.055817917 1.869
0.3570106 -0.052188821 1.868
0.31422842 -0.044977516 1.8673333
0.32468605 -0.043208331 1.86875
0.3562471 -0.044894025 1.864
0.36418682 -0.044377785 1.8638573
0.32678708 -0.034644093 1.8645715
0.33465636 -0.034119461 1.864
0.34029731 -0.034146432 1.8653332
0.35563761 -0.034134872 1.8648571
0.36304495 -0.034115411 1.8638
0.32925868 -0.025140654 1.864
0.33465636 -0.025140654 1.864
0.34041891 -0.025165703 1.8659999
0.36614189 -0.026039016 1.8640001
0.31846333 -0.012570327 1.864
0.32617429 -0.015135701 1.8640001
0.33459651 -0.016159603 1.8636667
0.34078375 -0.016196532 1.868
0.36864379 -0.016155107 1.8629999
0.31829247 -0.0089739887 1.863
0.3254855 -0.0089739887 1.863
0.33807337 -0.005384393 1.863
0.34598744 -0.0053895307 1.8636667
0.35532382 -0.0049455683 1.86625
0.36474049 -0.0041915546 1.8645
0.34669209 0.0053766859 1.8610001
0.35373503 0.0026950866 1.865
0.36491615 0.0053881267 1.864625
0.34718886 0.016158318 1.8636667
0.36694449 0.012566956 1.8635
0.37963706 0.048485547 1.864
0.38323551 0.046689786 1.864
0.37963706 0.05207707 1.864
0.38457337 0.055689786 1.8646666
0.15350869 -0.12437283 1.8710001
0.15712066 -0.11716282 1.8710001
0.24755213 -0.11722543 1.872
0.25658685 -0.11361849 1.872
0.26648667 -0.11223642 1.8729999
0.27299517 -0.11007033 1.873
0.28565797 -0.11512813 1.8769999
0.28761196 -0.1065183 1.874
0.29595101 -0.10568665 1.87525
0.30272779 -0.10312717 1.878
0.16460811 -0.095685929 1.874
0.30429971 -0.09942919 1.8764999
0.16345946 -0.086087346 1.8746667
0.30726397 -0.084785648 1.8724999
0.3145901 -0.08256454 1.8766667
0.31560737 -0.0749145 1.87375
0.32359844 -0.073629096 1.8754998
0.32460812 -0.065879092 1.8735
0.33173168 -0.065132946 1.878
0.32740733 -0.055967242 1.874
0.33464286 -0.055967245 1.874
0.34369308 -0.055304814 1.8759998
0.35310522 -0.054219652 1.8759999
0.36177415 -0.054163776 1.8740001
0.31655404 -0.041524082 1.874
0.32227296 -0.046568781 1.8736
0.33458334 -0.045127489 1.8736665
0.34547588 -0.045132414 1.8738889
0.35197878 -0.045038536 1.87
0.3201718 -0.037913293 1.874
0.34730503 -0.034302503 1.874
0.35207289 -0.034237478 1.8705001
0.3472577 -0.025917469 1.8769999
0.35653505 -0.025288373 1.8749999
0.36500192 -0.023445085 1.872
0.3461414 -0.014470616 1.8775001
0.35662067 -0.016261507 1.8754444
0.36500192 -0.016231215 1.8719999
0.34892762 -0.0090221586 1.873
0.35254344 -0.0090221586 1.873
0.36339092 -0.0090221586 1.873
0.37161198 -0.0090462426 1.878
0.37062261 0.0054132948 1.873
0.28626737 -0.13648844 1.8890001
0.27808785 -0.12698555 1.8829999
0.28551102 -0.12523919 1.8840001
0.29461971 -0.12307835 1.888
0.30069497 -0.12186512 1.888
0.31692713 -0.12361946 1.887
0.32230744 -0.12358429 1.8865
0.27532724 -0.11465029 1.8890001
0.28666827 -0.11432723 1.8836666
0.29526955 -0.11378626 1.8832856
0.3041496 -0.11480056 1.8839999
0.31479061 -0.11441468 1.8851111
0.32256371 -0.11822736 1.888
0.30606532 -0.10585839 1.8836666
0.31460619 -0.10527167 1.8839999
0.32491094 -0.10446171 1.8857501
0.31460619 -0.096196532 1.8839999
0.32567269 -0.096241705 1.8848888
0.33367473 -0.096451834 1.8890001
0.16371091 -0.081697971 1.8845
0.31530768 -0.087970376 1.88275
0.32569316 -0.085352272 1.8849998
0.34096816 -0.085532755 1.8890001
0.35863125 -0.085394986 1.886
0.3298533 -0.078211948 1.888
0.33471367 -0.073362239 1.888
0.34234023 -0.074514933 1.8865
0.35825095 -0.074416183 1.8839999
0.36294135 -0.073539734 1.88475
0.33740154 -0.064691074 1.8826666
0.34439361 -0.065697305 1.8837999
0.35735229 -0.064792223 1.8856667
0.36370656 -0.06534104 1.8839999
0.34697104 -0.059832368 1.882
0.35351589 -0.058957126 1.8829999
0.36411938 -0.058655426 1.8829999
0.35097682 -0.023595376 1.8839999
0.34715542 -0.019954721 1.883
0.35091472 -0.016333012 1.8836666
0.28687355 -0.13313006 1.893
0.29266506 -0.13509731 1.895
0.2841168 -0.12257515 1.899
0.29513538 -0.1285879 1.8932501
0.30527845 -0.12528501 1.8938333
0.31536245 -0.12681599 1.8940001
0.32689962 -0.12394412 1.892
0.33360258 -0.12314668 1.89375
0.32578456 -0.11422274 1.8940001
0.33247235 -0.11751059 1.896
0.32707238 -0.10759827 1.893
0.3349112 -0.10320376 1.8959999
0.36015251 -0.10218112 1.8940001
0.33699551 -0.094274253 1.8940001
0.34250242 -0.095058285 1.8975
0.35860473 -0.093131505 1.8954999
0.36015251 -0.096707135 1.8940001
0.15542246 -0.082124285 1.8943334
0.33623728 -0.085721105 1.8931665
0.34565845 -0.085270718 1.8947144
0.35576785 -0.084892586 1.895
0.36361679 -0.082066476 1.893
0.16470945 -0.07854335 1.8959999
0.33675805 -0.075974949 1.8926667
0.34581536 -0.074761219 1.8927143
0.35429147 -0.074732177 1.8920001
0.35368338 -0.06622608 1.8919998
0.28854054 -0.15224662 1.904
0.29515678 -0.15371406 1.904
0.28765759 -0.14584899 1.90425
0.29584053 -0.14488472 1.9036669
0.3050811 -0.14490944 1.9040002
0.31366718 -0.14276919 1.9048001
0.29941022 -0.13566762 1.903
0.3053523 -0.13459596 1.9034001
0.31370789 -0.13431925 1.9033751
0.32128379 -0.133763 1.902
0.2808938 -0.1154393 1.902
0.33480534 -0.11301445 1.9023333
0.34383783 -0.11561529 1.904889
0.35332772 -0.11387718 1.9065
0.33798456 -0.10633333 1.903
0.34501281 -0.10516556 1.9055716
0.35712767 -0.10537837 1.9022501
0.34726015 -0.095358863 1.9035001
0.35392874 -0.09574008 1.9038
0.35335395 -0.088626839 1.9033333
0.28237066 -0.12341426 1.9119999
0.35213318 -0.119605 1.91
0.35386619 -0.10422485 1.9113998
