# .PCD v0.7 - Point Cloud Data file format
VERSION 0.7
FIELDS x y z
SIZE 4 4 4
TYPE F F F
COUNT 1 1 1
WIDTH 288
HEIGHT 1
VIEWPOINT 0 0 0 1 0 0 0
POINTS 288
DATA ascii
-0.081885137 0.23486416 0.89299995
-0.092926852 0.2470478 0.89592308
-0.092702962 0.25262928 0.89609087
-0.083768338 0.23949903 0.90399998
-0.073803738 0.23549731 0.90422219
-0.08539553 0.24526598 0.90399992
-0.079072788 0.24201174 0.90819997
-0.092519306 0.25794798 0.89999998
-0.085365959 0.25496227 0.90275675
-0.079186454 0.25547543 0.90816665
-0.081932433 0.2601127 0.903
-0.072932109 0.23883848 0.9103334
-0.06571091 0.23702335 0.91374993
-0.074946687 0.24570447 0.9143846
-0.0690777 0.2413078 0.91750002
-0.080020271 0.25013006 0.91100001
-0.074516848 0.2533648 0.91370827
-0.069849424 0.2567977 0.91600001
-0.062329635 0.23906791 0.92250001
-0.053677395 0.23360842 0.92511111
-0.04784305 0.23231888 0.92820007
-0.070205279 0.24746306 0.92066669
-0.065809466 0.24563463 0.92416668
-0.070192568 0.25185114 0.92050004
-0.065991916 0.25344038 0.92549992
-0.053227801 0.23801927 0.93466663
-0.046711713 0.23551957 0.93666667
-0.061137602 0.24578431 0.93299991
-0.058451544 0.24473663 0.93740004
-0.060966797 0.2518366 0.93159997
-0.058804296 0.25282106 0.93724996
-0.043186776 0.23459104 0.94200003
-0.03732207 0.23166186 0.94300002
-0.053606842 0.24571346 0.94417387
-0.047922134 0.24402249 0.94866675
-0.053292949 0.25395519 0.9454999
-0.047975183 0.25507021 0.94800001
-0.043317568 0.23920617 0.95499998
-0.036001161 0.23642774 0.95639992
-0.044992227 0.2458472 0.95509517
-0.039804053 0.24852698 0.95899999
-0.043851513 0.25354186 0.95316666
-0.039762549 0.25288102 0.958
-0.038959458 0.2397871 0.96100003
-0.02513417 0.23213391 0.96459997
-0.04174228 0.24256456 0.96100003
-0.037405632 0.24552158 0.96470594
-0.036541387 0.25230408 0.964625
-0.031009171 0.23821822 0.97350001
-0.025454955 0.23711079 0.97666663
-0.018378861 0.23236465 0.97649997
-0.032454472 0.2449194 0.97466666
-0.028621405 0.24391693 0.97755557
-0.032151349 0.25203624 0.97399998
-0.027364478 0.25259346 0.97759998
-0.011394788 0.22846243 0.98399997
-0.022724904 0.23910694 0.98100001
-0.018748069 0.23819365 0.98766667
-0.023199676 0.24513496 0.98313636
-0.018128861 0.24760067 0.9885
-0.02348949 0.25123507 0.98244447
-0.017174229 0.25141039 0.9885
-0.0019165057 0.22875385 0.99349999
-0.01294357 0.23696651 0.99646157
-0.0075077214 0.23374374 0.99680007
-0.014082608 0.24513434 0.99524993
-0.0080357147 0.24862717 0.99900001
-0.012462999 0.25136194 0.99333328
-0.0086698839 0.2509422 0.99800003
0.0038885132 0.22883573 1.0065
-0.0043209894 0.23669891 1.0058182
0.0029208492 0.23112041 1.0079999
-0.0046817889 0.2448156 1.0050832
0.00097393815 0.24787571 1.0089999
0.0078093633 0.22900048 1.0115
0.014664574 0.22836512 1.013
-0.00097586878 0.2376532 1.011
0.0041200132 0.23624825 1.0147333
0.014739382 0.23047206 1.018
-0.00097586878 0.24057515 1.011
0.00452859 0.24472696 1.0143808
0.022772521 0.22825336 1.0256667
0.0088762064 0.23624349 1.02175
0.013095882 0.2357977 1.0259999
0.0088783782 0.24319267 1.022
0.012729661 0.24585542 1.0254999
0.026907658 0.2264197 1.0323333
0.016700048 0.23754215 1.0327499
0.021722652 0.23581696 1.0386667
0.017392782 0.24431036 1.0318462
0.022150902 0.24482305 1.0351667
0.020898649 0.25129384 1.031
0.035297491 0.22481906 1.0445999
0.026336091 0.23602319 1.0441875
0.027229087 0.24254614 1.0446666
0.03537162 0.24813101 1.0469999
0.036695946 0.22890174 1.056
0.043789253 0.22597463 1.0549999
0.051061776 0.22220038 1.058
0.034458496 0.2350035 1.056
0.035257962 0.24386984 1.05475
0.04732915 0.22799133 1.066
0.056434687 0.2222264 1.063
0.062648647 0.22038536 1.064
0.038587518 0.23619331 1.0613333
0.041931946 0.23543352 1.066
0.039978765 0.24145666 1.062
0.043052319 0.24361984 1.0669999
0.053889241 0.2270619 1.07375
0.047003452 0.23575233 1.0740833
0.046839233 0.24338248 1.073
0.050986484 0.24405396 1.0779999
0.059640925 0.2287052 1.084
0.063849099 0.22598875 1.0843333
0.07036294 0.22326013 1.0880001
0.05504398 0.23480041 1.0836667
0.056197084 0.24367854 1.0839412
0.062018339 0.24444798 1.089
0.068576261 0.22639211 1.0930001
0.075706884 0.22174728 1.0943333
0.059971046 0.23837188 1.09
0.063352473 0.23534442 1.0938333
0.06440907 0.24130733 1.0938001
0.07535892 0.22671755 1.1048334
0.084193051 0.2212216 1.1040001
0.068259016 0.23436491 1.103
0.072426878 0.23579577 1.1075
0.069140926 0.2420578 1.102
0.073861964 0.24039017 1.109
0.089088805 0.21961464 1.112
0.078284748 0.22797975 1.1109999
0.083167568 0.22671755 1.1131999
0.096130304 0.2209971 1.119
0.077021487 0.23451456 1.1124545
0.081708819 0.23557496 1.1154444
0.077538416 0.24288535 1.1126
0.083727397 0.24317221 1.1144167
0.11115637 0.21427071 1.1289999
0.087958492 0.22651733 1.125
0.090450771 0.22514738 1.1289999
0.1032529 0.22021003 1.126
0.086302504 0.23524201 1.1231999
0.090989053 0.2391535 1.1266667
0.088768825 0.24093883 1.1215
0.092302121 0.24169075 1.125
0.1082693 0.21939595 1.133
0.088349417 0.22970136 1.13
0.0946908 0.22734232 1.1363333
0.10380308 0.22247398 1.132
0.088349417 0.23187861 1.13
0.092718847 0.23526925 1.1349092
0.096497104 0.24186513 1.136
0.11383687 0.21951349 1.145
0.097977318 0.22853997 1.1405001
0.10417127 0.22696641 1.1428572
0.11182142 0.22210693 1.147
0.097113334 0.23485275 1.1414286
0.10327335 0.23549338 1.1454667
0.09802027 0.24073122 1.141
0.10388031 0.24222103 1.1465714
0.11877413 0.21825626 1.15
0.12586872 0.21457033 1.1539999
0.10776737 0.22953469 1.151
0.11347844 0.22539659 1.1563333
0.10827606 0.23497687 1.1505001
0.11158999 0.23424011 1.1547779
0.1077196 0.24273652 1.1505001
0.12852317 0.21829864 1.168
0.135783 0.21282849 1.1664
0.11620399 0.22783525 1.165
0.12139238 0.22213343 1.1645
0.11696953 0.2336401 1.1635714
0.12184798 0.23646902 1.1688334
0.13519658 0.21808958 1.1769999
0.14367829 0.21292637 1.1747142
0.15236777 0.21108575 1.178
0.12516978 0.22667323 1.1759092
0.13087356 0.22148845 1.179
0.12584282 0.23346293 1.1745
0.12546429 0.24029191 1.171
0.14551061 0.21727361 1.187
0.15657143 0.2110212 1.184
0.13436592 0.22526118 1.1857001
0.14092761 0.22070424 1.187
0.1351219 0.23363018 1.1862857
0.14116506 0.23482178 1.189
0.15340894 0.21682177 1.1950001
0.16019884 0.21050289 1.194
0.13906436 0.22597496 1.1906667
0.1436256 0.22566919 1.1951249
0.1389865 0.23043354 1.1900001
0.14321601 0.23316629 1.1946
0.15908398 0.21672542 1.2029999
0.16404761 0.21249968 1.2053332
0.14743114 0.22516184 1.2026666
0.15754344 0.22013584 1.209
0.14738005 0.23396361 1.20225
0.15068416 0.23500231 1.2063999
0.16942327 0.2075814 1.2105
0.16341892 0.21942775 1.2180001
0.1544342 0.22611219 1.214154
0.16119981 0.22195664 1.219
0.1562085 0.23380189 1.2150909
0.161722 0.23419124 1.2185
0.16817856 0.21750385 1.227
0.17324951 0.21173507 1.221
0.16470703 0.22664082 1.2231666
0.16662851 0.23312005 1.2221249
0.17201254 0.23324952 1.229
0.1867027 0.20770712 1.232
0.1764081 0.21598959 1.2332001
0.18537162 0.21127456 1.239
0.16794787 0.2223102 1.234
0.17233729 0.22364452 1.237
0.17378895 0.23140205 1.2360001
0.19611526 0.20627534 1.2434
0.18642086 0.21366763 1.2460001
0.19410135 0.21057321 1.249
0.17764202 0.22551337 1.2422857
0.18189962 0.22483239 1.248
0.17763771 0.23147912 1.2406666
0.20475404 0.20556791 1.2551666
0.18580309 0.21806166 1.2539999
0.1941303 0.21434537 1.257
0.18574034 0.22453293 1.2544
0.19152296 0.22701021 1.2573999
0.18557075 0.23172955 1.251857
0.19284266 0.23241618 1.2565
0.20822057 0.20660549 1.2615
0.21221833 0.20303604 1.265
0.19588611 0.21790329 1.2636
0.20326713 0.2138384 1.26475
0.19552162 0.22461715 1.2644
0.19765541 0.23136513 1.2639999
0.20210908 0.2310607 1.2690001
0.21661711 0.20557256 1.2726666
0.22426911 0.20221348 1.2752001
0.20608918 0.21697226 1.2724
0.21330179 0.21288694 1.2773333
0.19997394 0.22407804 1.271
0.20510116 0.22558804 1.2753999
0.2074959 0.23228973 1.2757499
0.21077895 0.23497783 1.277
0.22532977 0.2067389 1.285
0.23230597 0.20210114 1.2869999
0.21441762 0.2172948 1.284
0.2202249 0.21234971 1.289
0.20880309 0.2244316 1.28
0.21315479 0.22511066 1.283875
0.21561486 0.23250842 1.2837499
0.22236775 0.23433813 1.2869999
0.22927992 0.20883045 1.298
0.23713514 0.20055202 1.293
0.21725145 0.21807563 1.2934999
0.22176254 0.21633333 1.298
0.21837838 0.22542429 1.2927999
0.22323279 0.22696549 1.2968333
0.21624999 0.23828997 1.295
0.2236971 0.23122871 1.2918
0.2358709 0.20716402 1.3032501
0.24479511 0.2027618 1.30725
0.25143918 0.20051156 1.309
0.22530453 0.21607947 1.304
0.22656298 0.22392462 1.304
0.23258157 0.22457498 1.3071667
0.24580617 0.2068474 1.314
0.25591266 0.20104769 1.3125
0.26000965 0.20127746 1.314
0.22895801 0.21715365 1.3104999
0.23446751 0.21546082 1.313
0.24135134 0.2117264 1.316
0.22887065 0.22085741 1.3099999
0.23656698 0.22294855 1.3134
0.24262162 0.22440462 1.316
0.25477061 0.20657386 1.3263334
0.26689863 0.20010693 1.323
0.24547683 0.21524662 1.3237777
0.25014961 0.21637861 1.329
0.23844305 0.22016667 1.321
0.24323191 0.22231914 1.3262501
0.26080406 0.20644605 1.331
0.25438151 0.21522087 1.3377501
0.24795657 0.22311658 1.3310001
0.25184363 0.223 1.3380001
0.25818533 0.21679527 1.3475001
0.26285848 0.21559863 1.348125
0.25664011 0.224654 1.3457144
0.26346299 0.22396691 1.349
