# .PCD v0.7 - Point Cloud Data file format
VERSION 0.7
FIELDS x y z
SIZE 4 4 4
TYPE F F F
COUNT 1 1 1
WIDTH 370
HEIGHT 1
VIEWPOINT 0 0 0 1 0 0 0
POINTS 370
DATA ascii
-1.1670607 -0.11433044 2.3499999
-1.1681949 -0.10414258 2.3499999
-1.1412741 -0.21144508 2.3599999
-1.1412741 -0.20462427 2.3599999
-1.1539633 -0.18627553 2.3579998
-1.1559918 -0.1635236 2.3575001
-1.1559918 -0.15444364 2.3575001
-1.159498 -0.14551058 2.3599999
-1.1646008 -0.13394365 2.3565001
-1.159498 -0.13868979 2.3599999
-1.1719232 -0.12718931 2.3575001
-1.16861 -0.12050096 2.3599999
-1.1650941 -0.11355732 2.3575001
-1.1671245 -0.1044499 2.3569999
-1.1747278 -0.092980735 2.3540001
-1.16861 -0.095491327 2.3599999
-1.1762033 -0.087154783 2.3599999
-1.1770567 -0.07498908 2.3586664
-1.1691481 -0.070377171 2.3564999
-1.1533108 -0.23933525 2.3659999
-1.1465734 -0.23616378 2.3646667
-1.1380439 -0.23264305 2.3674998
-1.1329372 -0.22546627 2.3639998
-1.127333 -0.22594509 2.369
-1.133935 -0.21376956 2.3656001
-1.1350404 -0.20514451 2.3659999
-1.1518484 -0.19350192 2.3629999
-1.1452146 -0.19518335 2.365
-1.1350404 -0.19602697 2.3659999
-1.1533108 -0.18463005 2.3659999
-1.1464595 -0.18463005 2.3659999
-1.1356114 -0.18519989 2.3659999
-1.160972 -0.17301348 2.3629999
-1.1557577 -0.17455511 2.3653998
-1.1464595 -0.17323315 2.3659999
-1.1373243 -0.17323314 2.3659999
-1.154344 -0.16480507 2.365
-1.1487433 -0.16411561 2.3659999
-1.1548605 -0.15490124 2.3645
-1.1487433 -0.15727745 2.3659999
-1.1578784 -0.14588054 2.3659999
-1.160972 -0.13431309 2.3629999
-1.1578784 -0.13676301 2.3659999
-1.1708384 -0.12756598 2.3645
-1.1647297 -0.12536609 2.3659999
-1.1634752 -0.11467984 2.365
-1.1555946 -0.11168978 2.3659999
-1.1643598 -0.10481767 2.3652499
-1.1570058 -0.1056718 2.3673334
-1.1647297 -0.095734105 2.3659999
-1.156082 -0.0957736 2.3669999
-1.1748552 -0.084408477 2.368
-1.1670084 -0.088895954 2.3659999
-1.1746236 -0.076739244 2.3659999
-1.1670135 -0.070660882 2.3659999
-1.132862 -0.23070425 2.3710001
-1.1287606 -0.22166088 2.372
-1.1306641 -0.21516761 2.3759999
-1.1306641 -0.20601156 2.3759999
-1.1306641 -0.19685549 2.3759999
-1.1313967 -0.18528356 2.3743331
-1.1352509 -0.17625433 2.3759999
-1.1450859 -0.16588342 2.375
-1.1534334 -0.15334265 2.3756669
-1.1490115 -0.15794219 2.3759999
-1.1627722 -0.13047399 2.3759999
-1.1615487 -0.12347928 2.3734999
-1.1603253 -0.11649422 2.3710001
-1.1552879 -0.11523025 2.3763335
-1.1551242 -0.10453308 2.3760002
-1.154084 -0.096178226 2.3769999
-1.1765327 -0.080115601 2.3759999
-1.1691574 -0.084657997 2.375
-1.1714528 -0.075505778 2.375
-1.1680961 -0.073296241 2.3775001
-1.1538475 -0.24135837 2.3859999
-1.1417568 -0.23616572 2.3800001
-1.1335193 -0.23177457 2.382
-1.1284469 -0.22479673 2.381
-1.1289208 -0.21571098 2.382
-1.1308166 -0.20917726 2.3859999
-1.1289208 -0.20423698 2.382
-1.1317645 -0.19094798 2.388
-1.1289208 -0.19735259 2.382
-1.1349469 -0.18151735 2.385
-1.1405067 -0.17247111 2.3870001
-1.1462147 -0.16310164 2.3845
-1.1497231 -0.1563738 2.3870001
-1.16111 -0.14686705 2.382
-1.1542124 -0.14686705 2.382
-1.1485188 -0.14701879 2.3845
-1.16111 -0.13539307 2.382
-1.1551558 -0.13636783 2.3829999
-1.16111 -0.12391908 2.382
-1.1553004 -0.12403637 2.3842499
-1.1543311 -0.10348266 2.3870001
-1.1538475 -0.098842002 2.3859999
-1.1726062 -0.080317914 2.382
-1.165361 -0.087347783 2.3860002
-1.1594247 -0.085121386 2.388
-1.1618522 -0.24667725 2.3929999
-1.1457626 -0.23795183 2.398
-1.1314025 -0.21244991 2.3969998
-1.1290425 -0.20278998 2.392
-1.1290425 -0.19587669 2.392
-1.134371 -0.18446869 2.3934999
-1.1373909 -0.17766377 2.395
-1.144807 -0.16619751 2.3959999
-1.1478893 -0.15465318 2.3959999
-1.1512616 -0.14074662 2.395
-1.1482332 -0.14757466 2.3934999
-1.1539346 -0.13271219 2.39575
-1.1535763 -0.12459538 2.395
-1.1558851 -0.11536609 2.395
-1.1551155 -0.10690591 2.3949997
-1.1549716 -0.094618022 2.3954999
-1.1706023 -0.080655105 2.392
-1.1646901 -0.083850034 2.3956668
-1.1589252 -0.087731697 2.3965001
-1.1706023 -0.073741809 2.392
-1.1665946 -0.073926777 2.398
-1.1764749 -0.2431792 2.404
-1.1579112 -0.2431792 2.404
-1.145416 -0.2388449 2.4070001
-1.1383996 -0.23372062 2.402
-1.1354146 -0.22711128 2.4054999
-1.1342347 -0.21992776 2.4030001
-1.131946 -0.20414644 2.408
-1.1326182 -0.1945872 2.4045
-1.1342345 -0.18520135 2.4029999
-1.1423789 -0.1738078 2.4054999
-1.1365945 -0.17862813 2.408
-1.1442263 -0.16678756 2.4045
-1.1467838 -0.15639259 2.405
-1.1505406 -0.14151059 2.408
-1.1481516 -0.14584683 2.4030001
-1.1516656 -0.13440897 2.4054999
-1.1539898 -0.12513921 2.4054999
-1.1551892 -0.11599229 2.408
-1.1551892 -0.10671291 2.408
-1.1535473 -0.093916178 2.4070001
-1.1644865 -0.081194602 2.408
-1.1560444 -0.084121384 2.4033334
-1.1486293 -0.085691713 2.404
-1.1604662 -0.24469653 2.4189999
-1.1347665 -0.22326012 2.414
-1.1333562 -0.21369171 2.411
-1.1324469 -0.20274855 2.4189999
-1.1313462 -0.19452406 2.4133334
-1.1318487 -0.18595353 2.41275
-1.1360052 -0.17592423 2.4133332
-1.142665 -0.16491425 2.411
-1.1349745 -0.165149 2.4144444
-1.125446 -0.16511947 2.414
-1.1451644 -0.154202 2.4129999
-1.1394267 -0.15349133 2.414
-1.127777 -0.15613969 2.4189999
-1.1460601 -0.1441433 2.41325
-1.1394267 -0.14418882 2.414
-1.151974 -0.13704142 2.411
-1.1448735 -0.13497944 2.4156666
-1.1526906 -0.12550434 2.4124999
-1.1464169 -0.12558381 2.414
-1.1534073 -0.11628131 2.414
-1.1464169 -0.1162813 2.414
-1.1534073 -0.10465318 2.414
-1.1464169 -0.10465319 2.4139998
-1.1534073 -0.095350675 2.414
-1.146179 -0.093006268 2.4135001
-1.154778 -0.08132948 2.4120002
-1.146415 -0.08372061 2.414
-1.1347665 -0.086048171 2.414
-1.1455628 -0.23615319 2.427
-1.1382978 -0.23142919 2.4264998
-1.107167 -0.23595858 2.425
-1.1352558 -0.22427745 2.425
-1.1352558 -0.21493256 2.425
-1.1333814 -0.20567149 2.4260001
-1.1305743 -0.19624278 2.425
-1.1310406 -0.18463583 2.4259999
-1.1340854 -0.17736754 2.4225001
-1.1254286 -0.17047399 2.424
-1.1254286 -0.16346821 2.424
-1.1348798 -0.15354469 2.4222
-1.1272857 -0.15672061 2.428
-1.1350988 -0.14482467 2.4246666
-1.1413475 -0.13566859 2.428
-1.1441467 -0.12610404 2.424
-1.1441467 -0.11676301 2.424
-1.1429331 -0.10421214 2.4254
-1.1441467 -0.093410403 2.424
-1.1399373 -0.091112718 2.425
-1.1436747 -0.084032759 2.4229999
-1.1364224 -0.084018782 2.4225001
-1.1380646 -0.25059441 2.431
-1.1521438 -0.24122639 2.431
-1.1408736 -0.24182178 2.437
-1.1272219 -0.24192099 2.438
-1.1192925 -0.24122639 2.431
-1.1408736 -0.2371262 2.437
-1.1153229 -0.23389722 2.4359999
-1.1040024 -0.23678564 2.4334998
-1.134304 -0.22501928 2.4330001
-1.1333716 -0.21546435 2.431
-1.1286786 -0.21312235 2.431
-1.1333716 -0.20843834 2.431
-1.1256622 -0.20576358 2.4326
-1.126332 -0.19672832 2.431
-1.1162701 -0.19638939 2.4325998
-1.1263319 -0.18501832 2.431
-1.1169459 -0.18501832 2.431
-1.1099063 -0.1850183 2.431
-1.1333716 -0.17565028 2.431
-1.1255499 -0.17408895 2.431
-1.1159947 -0.1729102 2.4319999
-1.1099063 -0.17565028 2.431
-1.1231886 -0.16483493 2.4326668
-1.1263205 -0.15389596 2.4326668
-1.1286786 -0.14520425 2.431
-1.1359854 -0.13650732 2.4345999
-1.1427578 -0.12646821 2.431
-1.1380646 -0.12646821 2.431
-1.1427578 -0.11475819 2.431
-1.1375906 -0.11365511 2.4324999
-1.1361843 -0.1030896 2.4319999
-1.1427578 -0.096022159 2.431
-1.1379009 -0.094577394 2.434
-1.1375966 -0.081936419 2.4300001
-1.1649063 -0.24712427 2.4429998
-1.1542948 -0.24502456 2.4454999
-1.1455641 -0.24609779 2.4445
-1.1380019 -0.24271484 2.4460001
-1.1446168 -0.23790464 2.4450002
-1.1361052 -0.23456359 2.447
-1.1271577 -0.23629993 2.4446666
-1.1034904 -0.23347977 2.448
-1.0931448 -0.23328903 2.4460001
-1.0842857 -0.2329075 2.4419999
-1.0794199 -0.2333844 2.447
-1.1330477 -0.22617388 2.4454999
-1.1242982 -0.22631116 2.447
-1.1328156 -0.21906069 2.4449999
-1.1255271 -0.21637669 2.4466
-1.122744 -0.20809762 2.4453335
-1.1154839 -0.2019255 2.4466667
-1.1082162 -0.20046243 2.448
-1.1111236 -0.19542582 2.444
-1.1089879 -0.19311416 2.4445
-1.1097597 -0.18342775 2.441
-1.1115781 -0.17195086 2.4449999
-1.1097597 -0.17637283 2.441
-1.1231453 -0.16249567 2.4445
-1.1174117 -0.16559923 2.444
-1.1238562 -0.15620519 2.4443333
-1.1281127 -0.14672704 2.4433334
-1.1329559 -0.13594572 2.4469998
-1.1373026 -0.12717053 2.4445
-1.1380337 -0.11758189 2.441
-1.1340178 -0.10353421 2.4425001
-1.1375387 -0.094219655 2.4449999
-1.135639 -0.084832042 2.4459999
-1.1271197 -0.084901735 2.448
-1.1862481 -0.25286224 2.4530001
-1.1701612 -0.25348073 2.4590001
-1.1654141 -0.24874279 2.4590001
-1.1139783 -0.23419508 2.4555001
-1.1005598 -0.23386127 2.4519999
-1.0756183 -0.23409972 2.4545
-1.1161216 -0.22389562 2.4549999
-1.0942075 -0.22979096 2.4590001
-1.0894605 -0.22979096 2.4590001
-1.1213205 -0.21767822 2.4559999
-1.1194942 -0.21023892 2.4519999
-1.1130729 -0.20564017 2.4534998
-1.110027 -0.19134103 2.4519999
-1.107998 -0.19417726 2.4579999
-1.1102533 -0.18429142 2.4524999
-1.107998 -0.18707322 2.4579999
-1.1127433 -0.17523314 2.4579999
-1.1152153 -0.1654239 2.4530001
-1.1246864 -0.1536079 2.4530001
-1.1182649 -0.15843111 2.4545002
-1.1282003 -0.14667004 2.4555001
-1.1282003 -0.13247158 2.4555001
-1.1361974 -0.12530057 2.4539998
-1.1285009 -0.12986994 2.451
-1.1412143 -0.11603275 2.4579999
-1.1343837 -0.11345907 2.4535
-1.1269788 -0.11603275 2.4579999
-1.1345805 -0.10337573 2.4573333
-1.1265203 -0.10178324 2.457
-1.1351491 -0.09421619 2.4571998
-1.1265203 -0.097049132 2.457
-1.1265203 -0.087580927 2.457
-1.1601505 -0.25440848 2.4679999
-1.1178368 -0.2302582 2.464
-1.1063948 -0.23035163 2.4649999
-1.0886834 -0.23063198 2.4679999
-1.0748253 -0.23548266 2.4690001
-1.1087241 -0.22534993 2.4622498
-1.0998484 -0.22997785 2.461
-1.1206708 -0.21610308 2.4649999
-1.1145966 -0.21318476 2.4641998
-1.1093503 -0.20389788 2.461
-1.1063948 -0.19710501 2.4649999
-1.1098011 -0.18263391 2.4619999
-1.1111535 -0.17573217 2.4649999
-1.1152332 -0.16612957 2.4635
-1.1221371 -0.15423411 2.4629998
-1.1301882 -0.14011079 2.4649999
-1.1238079 -0.14482673 2.4644284
-1.1331052 -0.13988343 2.461
-1.1242027 -0.13342851 2.4643998
-1.1345353 -0.12247977 2.4606667
-1.1261032 -0.12393294 2.4644001
-1.1368896 -0.11307611 2.4623334
-1.1254276 -0.11398844 2.4649999
-1.1331052 -0.10669075 2.461
-1.1288127 -0.1067341 2.4619999
-1.1315637 -0.092728324 2.4679999
-1.1230502 -0.097365119 2.4649999
-1.1283542 -0.082981691 2.461
-1.1835086 -0.25533623 2.477
-1.1734711 -0.25523314 2.4760001
-1.1672751 -0.25492391 2.473
-1.0856984 -0.23151976 2.4775
-1.0730927 -0.23615029 2.4760001
-1.1050591 -0.22471677 2.4726667
-1.095264 -0.22674616 2.4775
-1.1115564 -0.21472397 2.4765
-1.1108831 -0.20744219 2.4749999
-1.1080425 -0.20259151 2.474
-1.1075457 -0.19469941 2.4746666
-1.1108831 -0.18598264 2.4749999
-1.1108831 -0.17644508 2.4749999
-1.1174643 -0.16956551 2.4790001
-1.1204392 -0.15260115 2.4749999
-1.1186284 -0.15949614 2.471
-1.1204392 -0.14306358 2.4749999
-1.1204392 -0.13591041 2.4749999
-1.1186284 -0.13092966 2.471
-1.1228244 -0.12160404 2.4749999
-1.1195338 -0.12627071 2.473
-1.1220299 -0.11365607 2.4749999
-1.1265215 -0.10373145 2.47525
-1.1262393 -0.09287861 2.4719999
-1.1309083 -0.083521195 2.477
-1.1299951 -0.088222541 2.4749999
-1.0809199 -0.23203373 2.483
-1.1044401 -0.22237574 2.4820001
-1.1051825 -0.2153462 2.4836667
-1.1039283 -0.20619902 2.483
-1.1040277 -0.19708286 2.4846666
-1.1078401 -0.18667655 2.4842498
-1.1096805 -0.17701542 2.483
-1.1163913 -0.16409807 2.483
-1.1096805 -0.16505492 2.483
-1.1168706 -0.15309441 2.483
-1.1078401 -0.15317269 2.4842501
-1.1168706 -0.14352602 2.483
-1.1055516 -0.14361288 2.4844999
-1.1168706 -0.13395761 2.483
-1.1072838 -0.13634971 2.483
-1.1168706 -0.12438922 2.483
-1.1172073 -0.11485477 2.4837499
-1.1245116 -0.10768787 2.484
-1.1254189 -0.095796727 2.4860001
-1.1281619 -0.086984269 2.4849999
-1.2002974 -0.25688249 2.4920001
-1.1954865 -0.25688249 2.4920001
