# .PCD v0.7 - Point Cloud Data file format
VERSION 0.7
FIELDS x y z
SIZE 4 4 4
TYPE F F F
COUNT 1 1 1
WIDTH 438
HEIGHT 1
VIEWPOINT 0 0 0 1 0 0 0
POINTS 438
DATA ascii
-1.1945926 -0.02200835 2.3633332
-1.1852264 -0.025070541 2.3658886
-1.1756184 -0.028135516 2.3679998
-1.1940717 -0.012927745 2.3683331
-1.1856585 -0.013679913 2.36675
-1.1872876 0.0068497108 2.3699999
-1.1944189 0.0136763 2.3659999
-1.1863968 0.01322235 2.3664
-1.1965338 0.025069043 2.3656666
-1.1871389 0.023559408 2.3666668
-1.1817476 0.038708575 2.3635001
-1.1967027 0.045587666 2.3659999
-1.1853669 0.045591041 2.3661668
-1.195433 0.054253757 2.3662
-1.1867867 0.052492291 2.369
-1.1441756 0.14815992 2.3659999
-1.139608 0.14815992 2.3659999
-1.1816168 -0.020609828 2.3770001
-1.1747336 -0.02747977 2.3770001
-1.1829131 -0.013726396 2.375
-1.1994672 -0.0045780344 2.3759999
-1.1867485 -0.0045732176 2.3734999
-1.197601 0.005339114 2.3753333
-1.1859021 0.0038105331 2.3733332
-1.1834121 0.013733141 2.3759999
-1.1816168 0.020609828 2.3770001
-1.184957 0.03660164 2.3745
-1.1808711 0.045771193 2.3755
-1.1943774 0.057201348 2.375
-1.1857065 0.052647397 2.3759999
-1.2063475 0.064092487 2.3759999
-1.2137384 0.073280349 2.3769999
-1.2213726 0.089196533 2.3740001
-1.2183273 0.08014933 2.3770001
-1.2173021 0.096098267 2.375
-1.2167896 0.10291908 2.3740001
-1.2111853 0.11197302 2.372
-1.2083867 0.11442727 2.3755
-1.2127172 0.12584297 2.375
-1.1744782 -0.024334297 2.3829999
-1.1664425 -0.027553467 2.3835001
-1.1831082 -0.016050097 2.3800001
-1.1774513 -0.013771195 2.3824999
-1.1978977 -0.0045895954 2.382
-1.1828996 -0.003825305 2.3826666
-1.1795038 -0.0068843928 2.382
-1.1978977 0.0022947977 2.382
-1.1836052 0.0045867055 2.381
-1.1850965 0.016077071 2.3840001
-1.1938001 0.029844893 2.3829999
-1.1866481 0.025248073 2.3825002
-1.1932992 0.05736994 2.382
-1.18665 0.055086222 2.3824999
-1.2041973 0.065028578 2.3823333
-1.1984005 0.061985545 2.3829999
-1.2119474 0.073449418 2.3824999
-1.2070946 0.073433518 2.382
-1.2237089 0.0874051 2.3874998
-1.2147452 0.085121393 2.388
-1.2076013 0.080351636 2.3829999
-1.2152538 0.094363198 2.3889999
-1.2170492 0.10812717 2.388
-1.2073479 0.11476445 2.3824999
-1.2157809 0.12157322 2.381
-1.2162915 0.13080347 2.382
-1.2060299 0.13579094 2.3889999
-1.1955984 0.13539307 2.382
-1.1443952 0.14707947 2.3855
-1.1729102 -0.020739883 2.392
-1.1659845 -0.027652215 2.392
-1.17522 -0.013825627 2.392
-1.180331 -0.002305395 2.3929999
-1.1787562 -0.0069205202 2.3945
-1.1839604 0.0046069366 2.391
-1.1849508 0.013834298 2.3930001
-1.1939311 0.033122029 2.3986666
-1.1839604 0.039158959 2.391
-1.1839604 0.046069361 2.391
-1.1868196 0.056114644 2.3936665
-1.2021207 0.066912331 2.395
-1.1951582 0.064192683 2.3967998
-1.185112 0.064685941 2.398
-1.2048496 0.073860146 2.3958333
-1.1946197 0.073942676 2.3985
-1.1853585 0.071631506 2.3985
-1.2231848 0.0830843 2.3954999
-1.2112947 0.086847149 2.3933334
-1.2066451 0.082341999 2.3963335
-1.2226743 0.096890658 2.3945
-1.2122467 0.095479771 2.3939998
-1.2239509 0.10391619 2.3970001
-1.2167563 0.1062028 2.3965001
-1.2047662 0.1153982 2.3956666
-1.2140158 0.12463006 2.3956666
-1.2036294 0.12475144 2.398
-1.2138475 0.13153565 2.3953333
-1.2031274 0.13162717 2.3970001
-1.1926241 0.13610357 2.3945
-1.1827973 0.1363025 2.398
-1.1920559 0.14092293 2.398
-1.1823041 0.14086416 2.3970001
-1.1786592 0.14098169 2.3989999
-1.1663518 0.145513 2.3975
-1.1568533 0.14548266 2.3970001
-1.1457626 0.15016377 2.398
-1.1703717 -0.020817919 2.401
-1.1691351 -0.025518304 2.408
-1.1767197 -0.013895473 2.4045
-1.1789988 -0.003864483 2.4059999
-1.1850287 0.0038641617 2.4056666
-1.1879764 0.013922447 2.4085
-1.1891598 0.02313632 2.4015
-1.1934866 0.031651895 2.404
-1.1872365 0.039421003 2.4070001
-1.1872365 0.046377651 2.4070001
-1.1858507 0.054886963 2.4073334
-1.183081 0.067275532 2.408
-1.1880734 0.076427743 2.404
-1.204275 0.08270745 2.4069998
-1.197027 0.081194602 2.408
-1.2275251 0.090323702 2.404
-1.2121873 0.095087998 2.4073334
-1.2169343 0.10662428 2.4059999
-1.2011766 0.11594413 2.4070001
-1.2011766 0.12521966 2.4070001
-1.2011766 0.13217631 2.4070001
-1.191388 0.13675722 2.4059999
-1.1820984 0.13675722 2.4059999
-1.1918832 0.14145184 2.4070001
-1.1542296 0.14139305 2.4059999
-1.1147499 0.14602891 2.4060001
-1.1638198 -0.033929482 2.4124
-1.1701062 -0.020895954 2.4100001
-1.1650579 -0.023256263 2.414
-1.1738909 -0.013947015 2.4130001
-1.1648538 -0.015130058 2.4159999
-1.1557963 -0.016313102 2.4189999
-1.1743784 -0.0046512526 2.414
-1.1650579 -0.0046512526 2.414
-1.1829222 0.0054264613 2.414
-1.1749867 0.0046548652 2.4152501
-1.1656615 0.0046548652 2.4152501
-1.1841882 0.013960501 2.415
-1.1758387 0.016299613 2.4169998
-1.1650579 0.016279384 2.414
-1.1487471 0.016279384 2.414
-1.1906892 0.023256263 2.414
-1.186029 0.023256263 2.414
-1.1665068 0.020956647 2.4169998
-1.1506506 0.025624277 2.418
-1.1487471 0.020930637 2.414
-1.1904426 0.032551542 2.4135001
-1.186029 0.039535645 2.414
-1.1857834 0.046502411 2.4135001
-1.1832484 0.056606293 2.4146667
-1.1839426 0.065132469 2.4145
-1.1848017 0.075216442 2.4146667
-1.2023399 0.086048171 2.414
-1.1930194 0.083722547 2.414
-1.186029 0.083722547 2.414
-1.20467 0.093025051 2.4139998
-1.1930194 0.093025051 2.414
-1.1865202 0.093064547 2.415
-1.2150297 0.10464186 2.4137502
-1.2046143 0.10464815 2.4138887
-1.1937602 0.10006405 2.4154999
-1.2000097 0.11628131 2.414
-1.1958445 0.11400289 2.415
-1.2000097 0.12558381 2.414
-1.1930194 0.12790944 2.414
-1.2000097 0.1325607 2.414
-1.1930194 0.1325607 2.414
-1.1836989 0.13488632 2.414
-1.1746211 0.13724037 2.4145
-1.1813687 0.1418632 2.414
-1.1743784 0.1418632 2.414
-1.1650579 0.1418632 2.414
-1.1534073 0.14651445 2.414
-1.1464169 0.14418882 2.414
-1.1336014 0.14535163 2.414
-1.1238924 0.14341362 2.414
-1.1130186 0.14341362 2.414
-1.1052517 0.14496402 2.414
-1.1207857 0.15116571 2.414
-1.1137953 0.15116571 2.414
-1.104475 0.15116571 2.414
-1.1628649 -0.035028901 2.424
-1.1614623 -0.024136478 2.4243333
-1.1552217 -0.022580283 2.4243333
-1.1639791 -0.01168754 2.4263332
-1.1551714 -0.014030347 2.4275
-1.1628649 -0.0046705203 2.424
-1.1553677 -0.0046685934 2.4229999
-1.1621014 0.0054537575 2.4256666
-1.1560174 0.0038972383 2.4259999
-1.180608 0.011666667 2.4219999
-1.1731091 0.01166185 2.421
-1.1637826 0.013226718 2.4226668
-1.1545522 0.012841763 2.4237499
-1.1750199 0.024123957 2.4233334
-1.1645846 0.024134554 2.4243333
-1.155221 0.022577072 2.4243333
-1.190942 0.030358382 2.424
-1.1881111 0.037349712 2.4229999
-1.1748055 0.030364644 2.4245
-1.1857731 0.046684973 2.4229999
-1.1818268 0.056058284 2.4245
-1.1836772 0.065375239 2.4235001
-1.1836772 0.074714348 2.4235001
-1.1862626 0.084069364 2.424
-1.1862626 0.093410403 2.424
-1.2003012 0.10508671 2.424
-1.199806 0.10971195 2.4230001
-1.1965226 0.11747656 2.4226668
-1.1949633 0.12525691 2.4226668
-1.1857733 0.13305491 2.4230001
-1.1722239 0.13778035 2.424
-1.1577076 0.1423921 2.4230001
-1.1432027 0.14233333 2.4219999
-1.1389972 0.1423921 2.4230001
-1.1034594 0.14466667 2.4219999
-1.1011215 0.15166666 2.4219999
-1.1615299 -0.035130057 2.431
-1.1559075 -0.03515742 2.4329998
-1.1521438 -0.02342004 2.431
-1.1521438 -0.016394027 2.431
-1.1538026 -0.0046941233 2.4345
-1.1542766 0.0046950867 2.4355001
-1.1559353 0.016447976 2.4389999
-1.1873417 0.02342004 2.431
-1.1849253 0.035127994 2.4308572
-1.1727933 0.03606686 2.431
-1.1647289 0.034205589 2.4318001
-1.1573128 0.032802507 2.4320002
-1.1825268 0.04683502 2.4307499
-1.1743659 0.046071615 2.4316666
-1.1803021 0.056208093 2.431
-1.1765763 0.053910408 2.4330001
-1.1845077 0.063208096 2.4300001
-1.1829987 0.074233145 2.4333334
-1.1826487 0.084312141 2.431
-1.1826487 0.093680151 2.431
-1.1775434 0.093830436 2.4349999
-1.1959456 0.10382885 2.431
-1.1849952 0.10304818 2.431
-1.1756091 0.10304818 2.431
-1.1954312 0.11357586 2.4307499
-1.1851033 0.11476912 2.431222
-1.1760926 0.11011945 2.4319999
-1.1943812 0.1241262 2.431
-1.1867137 0.1270183 2.4326
-1.1845077 0.13343932 2.4300001
-1.1750081 0.13468361 2.4356
-1.1631935 0.13837716 2.4345
-1.1521438 0.13817823 2.431
-1.1357181 0.13817823 2.431
-1.1281815 0.13840559 2.4349999
-1.1182673 0.13863294 2.4389999
-1.1031408 0.14456069 2.4333334
-1.0958272 0.14754625 2.431
-1.1005203 0.15223025 2.431
-1.0958272 0.15223025 2.431
-1.1536773 -0.033463776 2.4461999
-1.1515396 -0.024322093 2.4430001
-1.154763 -0.014113199 2.4414999
-1.1578311 0.02588921 2.4430001
-1.1641906 0.039986029 2.4414999
-1.1737098 0.047863197 2.4433334
-1.1649266 0.044809248 2.448
-1.1771718 0.055721257 2.444
-1.1842511 0.065926783 2.444
-1.1649266 0.068393059 2.448
-1.1833465 0.073079959 2.447
-1.1799614 0.077572256 2.4400001
-1.1654024 0.07313969 2.4489999
-1.1799614 0.084624276 2.4400001
-1.1748147 0.096535645 2.444
-1.1748147 0.10359923 2.444
-1.1779236 0.11440887 2.4436002
-1.1859503 0.12496869 2.4475
-1.1793185 0.12606744 2.4460001
-1.1691747 0.13908768 2.447
-1.150749 0.13914451 2.448
-1.1234363 0.13868979 2.4400001
-1.1034904 0.14386126 2.448
-1.1502365 -0.03313873 2.457
-1.1511979 -0.023644509 2.454
-1.1573513 -0.014202313 2.457
-1.1597229 -0.004734104 2.457
-1.1606671 0.0023689789 2.4590001
-1.1597229 0.016569365 2.457
-1.1597229 0.021303467 2.457
-1.1625705 0.030721581 2.4530001
-1.1722804 0.047276974 2.4535
-1.1658784 0.049566474 2.45
-1.1834393 0.0591763 2.457
-1.1758524 0.057614323 2.4576666
-1.1666 0.056797687 2.4565001
-1.1834393 0.066277459 2.457
-1.1666 0.066264451 2.4565001
-1.1834393 0.075745665 2.457
-1.1670748 0.075760596 2.4575
-1.1834393 0.08521387 2.457
-1.1824758 0.092239879 2.4549999
-1.1739527 0.097049132 2.457
-1.1739527 0.10415029 2.457
-1.1763244 0.11361849 2.457
-1.1786959 0.12308671 2.457
-1.1758456 0.13250098 2.4560001
-1.159251 0.13959923 2.4560001
-1.1468437 -0.033246629 2.4649999
-1.1385797 -0.034052666 2.4659998
-1.1516409 -0.021329479 2.46
-1.148101 -0.024549775 2.4659998
-1.1563609 -0.014248554 2.4649999
-1.149223 -0.016623313 2.4649999
-1.1601505 -0.0071329479 2.4679999
-1.163499 0.0071242773 2.4649999
-1.1596805 0.0023766859 2.467
-1.1625551 0.011864162 2.4630001
-1.1687317 0.03563584 2.4660001
-1.1690477 0.045152217 2.4666667
-1.1825337 0.066493258 2.4649999
-1.177775 0.066493258 2.4649999
-1.1649271 0.065692998 2.4646666
-1.1587403 0.068868011 2.4649999
-1.1825337 0.075992286 2.4649999
-1.177775 0.075992286 2.4649999
-1.1652426 0.076794475 2.4653332
-1.1592104 0.076024085 2.4660001
-1.1825337 0.085491329 2.4649999
-1.1753957 0.085491329 2.4649999
-1.1682577 0.085491329 2.4649999
-1.1815743 0.092540465 2.4630001
-1.1744434 0.094186246 2.4646666
-1.1684947 0.095010117 2.4654999
-1.1730163 0.1044894 2.4649999
-1.1749204 0.1148115 2.4656668
-1.1730163 0.13536127 2.4649999
-1.1682577 0.13536127 2.4649999
-1.1373905 -0.033389691 2.4755001
-1.1438655 -0.024628131 2.474
-1.158663 -0.011921965 2.4749999
-1.1486429 -0.016684007 2.474
-1.1620308 -0.0023815029 2.4719999
-1.1595994 -0.0071589598 2.477
-1.1634411 0.007153179 2.4749999
-1.1591313 0.0023853565 2.4760001
-1.1634411 0.014306358 2.4749999
-1.165359 0.023834296 2.474
-1.1591313 0.021468209 2.4760001
-1.1660662 0.031003371 2.4755001
-1.1591313 0.031009635 2.4760001
-1.162501 0.064326592 2.473
-1.158195 0.069119461 2.474
-1.158429 0.076285645 2.4744999
-1.1677471 0.085803464 2.474
-1.1679831 0.095356934 2.4744999
-1.1729971 0.1025289 2.4749999
-1.1820753 0.12393834 2.474
-1.1815975 0.13103564 2.473
-1.164888 0.13580059 2.473
-1.1572586 0.13574566 2.4719999
-1.1352454 -0.032692034 2.483
-1.1288543 -0.033489402 2.483
-1.1456313 -0.021528902 2.483
-1.1360444 -0.023921002 2.483
-1.1288543 -0.023921002 2.483
-1.1552181 -0.011960501 2.483
-1.1456313 -0.014352601 2.483
-1.1353346 -0.013882659 2.4845998
-1.1297635 -0.016758189 2.4849999
-1.161472 -0.0023901733 2.4809999
-1.1552181 -0.0047842003 2.483
-1.1456313 -0.0047842003 2.483
-1.1371475 -0.0055834935 2.4836667
-1.1624084 0.0071763005 2.483
-1.1554502 0.0047856453 2.4835
-1.145584 0.0035924856 2.4854999
-1.1624084 0.014352601 2.483
-1.1576148 0.014352601 2.483
-1.1638668 0.026291907 2.4809999
-1.1576148 0.023921002 2.483
-1.1719952 0.035881504 2.483
-1.1648051 0.035881504 2.483
-1.1580811 0.031109827 2.484
-1.1719952 0.043057807 2.483
-1.1648051 0.043057807 2.483
-1.1716805 0.055002246 2.4823332
-1.165378 0.055022351 2.4831998
-1.1619402 0.064560696 2.4820001
-1.1576148 0.069370903 2.483
-1.1576148 0.076547205 2.483
-1.1648051 0.086115614 2.483
-1.1576148 0.086115614 2.483
-1.1648051 0.095684007 2.483
-1.1576148 0.093291909 2.483
-1.173593 0.10604978 2.483
-1.165604 0.10445505 2.483
-1.1751909 0.11402345 2.483
-1.1815821 0.12438922 2.483
-1.174392 0.12678131 2.483
-1.1676718 0.12683237 2.484
-1.1811062 0.13151252 2.4820001
-1.1763147 0.13151252 2.4820001
-1.1604122 0.1366792 2.4890001
-1.1508021 0.1366792 2.4890001
-1.1427742 0.1362948 2.4820001
-1.1379827 0.1362948 2.4820001
-1.1350174 0.14130443 2.4860001
-1.1281352 -0.040813103 2.4920001
-1.1276824 -0.033597302 2.4909999
-1.1283615 -0.024011079 2.4924998
-1.1355786 -0.0048029865 2.4925001
-1.1482992 0.0072080921 2.494
-1.1382133 0.0024017342 2.493
-1.1570001 0.014404625 2.4920001
-1.1570001 0.024007708 2.4920001
-1.1618109 0.036011562 2.4920001
-1.1574643 0.031222545 2.493
-1.1618109 0.043213874 2.4920001
-1.1643455 0.053660888 2.4940002
-1.1609797 0.063263647 2.4936669
-1.1565356 0.069594413 2.4909999
-1.1565356 0.076793835 2.4909999
-1.1565356 0.086393058 2.4909999
-1.1613445 0.098392099 2.4909999
-1.1570001 0.093630061 2.4920001
-1.1642163 0.10563391 2.4920001
-1.1738379 0.115237 2.4920001
-1.1805801 0.12239017 2.4909999
-1.1771352 0.12278324 2.4990001
-1.1666217 0.12724085 2.4920001
-1.1752472 0.13220134 2.4949999
-1.1698986 0.1324133 2.4990001
-1.1560714 0.1367341 2.49
-1.1719755 0.11640977 2.5
-1.1703668 0.12283237 2.5
