# .PCD v0.7 - Point Cloud Data file format
VERSION 0.7
FIELDS x y z
SIZE 4 4 4
TYPE F F F
COUNT 1 1 1
WIDTH 212
HEIGHT 1
VIEWPOINT 0 0 0 1 0 0 0
POINTS 212
DATA ascii
0.025121622 -0.10485163 2.3659999
0.036540538 -0.10485163 2.3659999
0.043391891 -0.10485163 2.3659999
0.038824324 -0.095734105 2.3659999
0.046436936 -0.0964939 2.3659999
0.052515924 -0.095714353 2.3655
0.043391891 -0.086616568 2.3659999
0.038824324 -0.072940268 2.3659999
0.043391895 -0.075219654 2.3659999
0.037301801 -0.063062936 2.3659999
0.043391891 -0.063822731 2.3659999
0.037301797 -0.053945407 2.3659999
0.045675673 -0.054705203 2.3659999
0.054049548 -0.053945407 2.3659999
0.036540538 -0.045587666 2.3659999
0.045675676 -0.045587666 2.3659999
0.052527025 -0.045587666 2.3659999
0.035779279 -0.037229929 2.3659999
0.043391891 -0.038749516 2.3659999
0.052504826 -0.03873314 2.365
0.03424228 -0.029619461 2.365
0.0053648651 -0.10479575 2.382
0.011496139 -0.10556069 2.382
0.013795367 -0.0963815 2.382
0.025291504 -0.096381508 2.382
0.034488417 -0.0963815 2.382
0.043666989 -0.094047211 2.381
0.014561776 -0.087967247 2.382
0.027130887 -0.086743355 2.382
0.036787644 -0.084907509 2.382
0.028357143 -0.07266859 2.382
0.034488417 -0.073433518 2.382
-0.0068976833 -0.061959539 2.382
0.026211197 -0.064713292 2.382
0.034488417 -0.06654913 2.382
-0.020693051 -0.052780345 2.382
-0.0045984555 -0.055075143 2.382
0.0045984555 -0.052780345 2.382
0.013028957 -0.054310214 2.382
0.025291504 -0.05507515 2.382
0.034488417 -0.05736994 2.382
-0.022992279 -0.045895949 2.382
-0.014561776 -0.045131017 2.382
-0.0068976833 -0.04819075 2.382
0.0038320462 -0.046660885 2.382
0.016094595 -0.04819075 2.382
0.025280889 -0.048170522 2.381
-0.048283782 -0.020653179 2.382
-0.06207915 -0.011473988 2.382
-0.052882239 -0.016063584 2.382
-0.002315637 -0.10400289 2.3989999
-0.002315637 -0.099380538 2.3989999
0.0050922781 -0.095642775 2.398
-0.043978766 -0.080857418 2.398
-0.034720078 -0.082012519 2.398
-0.025461391 -0.080857418 2.398
0.016202703 -0.080857418 2.398
0.023146719 -0.083167635 2.398
-0.043978766 -0.076236993 2.398
-0.034720078 -0.073926784 2.398
-0.023918277 -0.073156707 2.398
-0.0054009012 -0.073156707 2.398
0.0046293437 -0.071616568 2.398
0.013888031 -0.073926777 2.398
0.022375161 -0.074696846 2.398
-0.033794209 -0.065147981 2.398
-0.023146719 -0.064685941 2.398
-0.016202703 -0.064685941 2.398
-0.0038577865 -0.06545601 2.398
0.0046293437 -0.064685941 2.398
0.013888031 -0.064685941 2.398
0.020832047 -0.062375724 2.398
-0.03163385 -0.056215156 2.398
-0.023918277 -0.056215156 2.398
-0.013888031 -0.055445082 2.398
0.0046293437 -0.057755299 2.398
0.016202703 -0.057755299 2.398
-0.030090734 -0.046204239 2.398
-0.011573359 -0.048514452 2.398
-0.039349422 -0.030032756 2.398
-0.057866797 -0.016171483 2.398
-0.065243244 -0.10000193 2.414
-0.034951739 -0.10000193 2.414
-0.083884172 -0.090699427 2.414
-0.074563712 -0.093025051 2.414
-0.065243244 -0.093025051 2.414
-0.05592278 -0.090699427 2.414
-0.046602316 -0.090699427 2.414
-0.034951735 -0.093025051 2.4139998
-0.025631275 -0.093025051 2.414
0.0023310811 -0.090736993 2.415
-0.093223937 -0.0837394 2.4145
-0.083884172 -0.083722539 2.414
-0.074563712 -0.083722539 2.414
-0.065243244 -0.083722539 2.414
-0.05592278 -0.083722547 2.414
-0.047379021 -0.08449775 2.414
-0.034951739 -0.086048171 2.414
-0.022524454 -0.08449775 2.414
-0.006993243 -0.081430636 2.415
0.0054382239 -0.084520876 2.4146667
0.011650579 -0.083722547 2.414
-0.081587836 -0.076777458 2.415
-0.074594587 -0.076777458 2.415
-0.062939189 -0.076777458 2.415
-0.055928815 -0.0744275 2.4142499
-0.047379021 -0.073644824 2.414
-0.020971043 -0.076745667 2.414
-0.013980694 -0.074420035 2.414
-0.0023301158 -0.076745667 2.414
0.0046602315 -0.076745667 2.414
-0.053614862 -0.067471094 2.415
-0.045832369 -0.065902054 2.4143333
-0.039611969 -0.062791906 2.414
-0.011650579 -0.065117538 2.414
-0.044290539 -0.058164738 2.415
-0.03805856 -0.055039819 2.414
-0.034951739 -0.04883815 2.414
-0.053592663 -0.020930637 2.414
-0.062913127 -0.016279384 2.414
-0.056316599 -0.10304818 2.431
-0.044583976 -0.10304818 2.431
-0.039890926 -0.10070617 2.431
-0.056316599 -0.096022159 2.431
-0.046930499 -0.096022159 2.431
-0.021118727 -0.093680158 2.431
-0.016425675 -0.093680158 2.431
-0.0039108754 -0.092899494 2.431
-0.11028668 -0.081970133 2.431
-0.10324711 -0.081970133 2.431
-0.014861326 -0.083531469 2.431
-0.0039108754 -0.085092805 2.431
0.0023465252 -0.081970133 2.431
-0.11185104 -0.074163452 2.431
-0.10324711 -0.074944124 2.431
-0.093860999 -0.074944124 2.431
-0.085257083 -0.074163452 2.431
-0.075088799 -0.072602116 2.431
-0.066484876 -0.074163452 2.431
-0.11028668 -0.067918114 2.431
-0.10402928 -0.066356778 2.431
-0.093860999 -0.067918114 2.431
-0.084474906 -0.067918114 2.431
-0.07743533 -0.067918114 2.431
-0.063356176 -0.067918114 2.431
-0.056316599 -0.065576106 2.431
-0.049277026 -0.063234106 2.431
-0.046930499 -0.056208093 2.431
-0.037544399 -0.046840079 2.431
-0.044583976 -0.030446051 2.431
-0.058663126 -0.021078035 2.431
-0.049277026 -0.025762042 2.431
-0.049621619 -0.10376878 2.448
-0.0070916987 -0.10145183 2.4489999
-0.011814672 -0.094335258 2.448
-0.0070888028 -0.096693642 2.448
-0.011814672 -0.087260112 2.448
-0.12050965 -0.063676298 2.448
-0.11420849 -0.065248549 2.448
-0.10160618 -0.063676298 2.448
-0.094517373 -0.063676298 2.448
-0.085065633 -0.063676298 2.448
-0.074826255 -0.065248549 2.448
-0.066949807 -0.065248549 2.448
-0.059073359 -0.063676298 2.448
-0.12050965 -0.056601156 2.448
-0.11342084 -0.056601159 2.448
-0.10396911 -0.056601156 2.448
-0.094517373 -0.056601159 2.448
-0.085065633 -0.056601156 2.448
-0.075613901 -0.056601159 2.448
-0.066162162 -0.058959536 2.448
-0.056710422 -0.056601159 2.448
-0.049621619 -0.054242775 2.448
-0.12050965 -0.047167629 2.448
-0.11342084 -0.047167629 2.448
-0.10396911 -0.047167629 2.448
-0.094517373 -0.047167629 2.448
-0.085853279 -0.047953755 2.448
-0.04489575 -0.047953755 2.448
-0.035444014 -0.040092483 2.448
-0.054347489 -0.030658958 2.448
-0.044895753 -0.033017341 2.448
-0.035444014 -0.035375722 2.448
-0.074826255 -0.022797689 2.448
-0.065374516 -0.022797689 2.448
-0.056710422 -0.025942195 2.448
-0.068525098 -0.016508671 2.448
-0.066621616 -0.054619458 2.4649999
-0.12139576 -0.040387284 2.4660001
-0.11420849 -0.040370904 2.4649999
-0.10469112 -0.040370904 2.4649999
-0.095173739 -0.040370904 2.4649999
-0.084863253 -0.041954082 2.4649999
-0.076138996 -0.045120422 2.4649999
-0.066621616 -0.045120422 2.4649999
-0.057104245 -0.045120418 2.4649999
-0.046159267 -0.042270713 2.4649999
-0.11420849 -0.033246629 2.4649999
-0.10469112 -0.033246629 2.4649999
-0.095173739 -0.033246629 2.4649999
-0.085656367 -0.033246629 2.4649999
-0.076138996 -0.033246629 2.4649999
-0.066621616 -0.033246629 2.4649999
-0.057897359 -0.034038216 2.4649999
-0.047586873 -0.035621386 2.4649999
-0.11420849 -0.023747589 2.4649999
-0.10469112 -0.023747591 2.4649999
-0.095173739 -0.023747589 2.4649999
-0.085656367 -0.023747591 2.4649999
-0.078518339 -0.02612235 2.4649999
-0.069000959 -0.02612235 2.4649999
