# .PCD v0.7 - Point Cloud Data file format
VERSION 0.7
FIELDS x y z
SIZE 4 4 4
TYPE F F F
COUNT 1 1 1
WIDTH 112
HEIGHT 1
VIEWPOINT 0 0 0 1 0 0 0
POINTS 112
DATA ascii
-0.5422008 -0.026184972 2.2650001
-0.52517569 -0.024024084 2.2670002
-0.49523768 -0.13590053 2.27525
-0.49869886 -0.12936802 2.276
-0.51210523 -0.11407129 2.277
-0.50411266 -0.10588761 2.2740002
-0.4991371 -0.10314644 2.2780001
-0.4991371 -0.096562624 2.2780001
-0.50254005 -0.085419551 2.2735
-0.4991371 -0.087784201 2.2780001
-0.50506657 -0.074519262 2.2749999
-0.50506657 -0.06575048 2.2750001
-0.53447777 -0.053673409 2.2739999
-0.52460033 -0.054768786 2.2739999
-0.5136255 -0.054768786 2.2739999
-0.50514024 -0.054802179 2.2753334
-0.49935618 -0.050498076 2.279
-0.54362351 -0.043084782 2.2739999
-0.53557527 -0.043815032 2.2739999
-0.52460033 -0.043815028 2.2739999
-0.5136255 -0.043815028 2.2739999
-0.50512183 -0.043837912 2.27525
-0.54346395 -0.035771996 2.2733333
-0.53557527 -0.035052024 2.2739999
-0.52460033 -0.03505202 2.2739999
-0.5136255 -0.035052024 2.2739999
-0.50804394 -0.035120904 2.2785001
-0.54216021 -0.024098266 2.2739999
-0.53557527 -0.026289018 2.2739999
-0.52350289 -0.027384393 2.2739999
-0.51385039 -0.026301542 2.2750001
-0.50815541 -0.024151253 2.279
-0.47420368 -0.18711466 2.2850001
-0.48658395 -0.1779971 2.2809999
-0.49163318 -0.1672264 2.2839999
-0.49174082 -0.15405636 2.2845001
-0.49582529 -0.14515895 2.283
-0.49448454 -0.13660501 2.2870002
-0.50628811 -0.12303324 2.2804999
-0.51038516 -0.11687572 2.289
-0.50706887 -0.11385357 2.2873333
-0.50110906 -0.1079605 2.2869999
-0.49957529 -0.081271678 2.28
-0.50143778 -0.057323217 2.2885001
-0.49602365 -0.056232657 2.289
-0.50596625 -0.037488438 2.289
-0.51038516 -0.028667631 2.289
-0.50596625 -0.024257226 2.289
-0.48551717 -0.17536704 2.2926002
-0.47648647 -0.17916763 2.296
-0.49031711 -0.16386175 2.2985001
-0.49313995 -0.14787765 2.2909999
-0.49042374 -0.13510501 2.299
-0.5044179 -0.1236522 2.2919998
-0.50242376 -0.11487091 2.293
-0.49799711 -0.092780352 2.293
-0.4981057 -0.083961949 2.2934999
-0.50220466 -0.075074181 2.2919998
-0.50253332 -0.066286609 2.2934999
-0.49486196 -0.055370905 2.299
-0.50176638 -0.04632948 2.29
-0.49843147 -0.046430636 2.2950001
-0.50685036 -0.033135839 2.293
-0.50685036 -0.028717726 2.293
-0.49191698 -0.15550867 2.306
-0.49529248 -0.14408961 2.3010001
-0.50016892 -0.13090269 2.303
-0.49658397 -0.13113005 2.3069999
-0.50439578 -0.12197495 2.302
-0.49973458 -0.1263555 2.3010001
-0.50114626 -0.11559778 2.3074999
-0.50082046 -0.099971101 2.306
-0.49679926 -0.093387283 2.3080001
-0.49679926 -0.084493257 2.3080001
-0.50038606 -0.075468205 2.3039999
-0.49679926 -0.075599231 2.3080001
-0.50027752 -0.066575624 2.3034999
-0.49679926 -0.068928711 2.3080001
-0.50592953 -0.042264935 2.309
-0.50571042 -0.033352602 2.3080001
-0.50571042 -0.026682083 2.3080001
-0.47554922 -0.18049422 2.313
-0.48608106 -0.17358381 2.3099999
-0.4931969 -0.14923315 2.312
-0.50234073 -0.1225578 2.313
-0.50342661 -0.10719171 2.3179998
-0.49744502 -0.064565517 2.3110001
-0.50364381 -0.042447977 2.319
-0.50513607 -0.036490366 2.319
-0.50506306 -0.024572255 2.3186667
-0.48365188 -0.17384009 2.3233333
-0.49148166 -0.16575047 2.3249998
-0.49639669 -0.1412341 2.3269999
-0.50002795 -0.11637379 2.323
-0.50002795 -0.10742196 2.323
-0.49959752 -0.10062139 2.3210001
-0.49554342 -0.093994215 2.323
-0.49554342 -0.085042387 2.323
-0.49554342 -0.076090559 2.323
-0.49575675 -0.069406547 2.3239999
-0.48950678 -0.16660501 2.3369999
-0.49401832 -0.15985259 2.3369999
-0.49488613 -0.14465703 2.3340001
-0.49391022 -0.13393113 2.3364999
-0.5022881 -0.12589258 2.3334999
-0.49884993 -0.12616234 2.3385
-0.49599171 -0.11666338 2.3378
-0.49874324 -0.10361175 2.3379998
-0.49338418 -0.094439313 2.3340001
-0.49338418 -0.085445091 2.3340001
-0.49391264 -0.076531306 2.3365002
-0.49681464 -0.06526012 2.336
