# .PCD v0.7 - Point Cloud Data file format
VERSION 0.7
FIELDS x y z
SIZE 4 4 4
TYPE F F F
COUNT 1 1 1
WIDTH 739
HEIGHT 1
VIEWPOINT 0 0 0 1 0 0 0
POINTS 739
DATA ascii
-0.84485513 -0.71616572 2.398
-0.8355965 -0.71616572 2.398
-0.85642856 -0.70692492 2.398
-0.84485525 -0.70692486 2.398
-0.83328187 -0.70692486 2.398
-0.86568725 -0.69999421 2.398
-0.85720015 -0.69845408 2.398
-0.84485513 -0.69999427 2.398
-0.8355965 -0.69999421 2.398
-0.83269984 -0.76164454 2.4030001
-0.82840544 -0.76659346 2.404
-0.83304638 -0.75501347 2.404
-0.84232819 -0.74574858 2.404
-0.83571529 -0.74837667 2.405
-0.83470756 -0.73736 2.4043334
-0.83304638 -0.72490567 2.404
-0.83166027 -0.7144509 2.4000001
-0.82909465 -0.71392095 2.4060001
-0.94387114 -0.7030592 2.4085
-0.93244112 -0.70320517 2.4089999
-0.92546523 -0.70320517 2.4089999
-0.91848934 -0.70320517 2.4089999
-0.83235329 -0.70116186 2.402
-0.82840544 -0.70637769 2.404
-0.94298911 -0.6954478 2.40625
-0.93709165 -0.69856358 2.4089999
-0.9059242 -0.69320178 2.4064999
-0.89644694 -0.69537282 2.4060001
-0.889292 -0.69522977 2.4054999
-0.87294471 -0.6951592 2.4052501
-0.86321235 -0.69479769 2.404
-0.85505766 -0.69585901 2.405
-0.84605408 -0.6982736 2.408
-0.83908105 -0.6982736 2.408
-0.94328284 -0.68638825 2.4070001
-0.92482495 -0.68514389 2.4053333
-0.91791743 -0.68653321 2.4074998
-0.90416217 -0.68899423 2.408
-0.8832432 -0.68899423 2.408
-0.87303716 -0.68596333 2.4054999
-0.93205404 -0.67971486 2.408
-0.87412691 -0.67753518 2.4085
-0.9312799 -0.66060692 2.4059999
-0.92663509 -0.66060692 2.4059999
-0.9971351 -0.6541965 2.408
-0.9971351 -0.647237 2.408
-0.75527024 -0.85385835 2.415
-0.7462548 -0.85421193 2.4159999
-0.79489869 -0.84455198 2.415
-0.78235841 -0.84598589 2.4146667
-0.77458882 -0.84753686 2.4146667
-0.76692569 -0.8492052 2.415
-0.81570899 -0.83972496 2.4145
-0.82253093 -0.82094604 2.414
-0.83340478 -0.81319398 2.414
-0.82486105 -0.81396914 2.414
-0.83185136 -0.80466664 2.414
-0.82719111 -0.80699229 2.414
-0.82736242 -0.79552937 2.4145
-0.82719111 -0.78606164 2.414
-0.82494622 -0.77683985 2.4142499
-0.83150673 -0.76248848 2.4130001
-0.82566774 -0.76637822 2.4150002
-0.83185136 -0.75350285 2.414
-0.82719111 -0.75350285 2.414
-0.84082341 -0.74621677 2.4130001
-0.83317375 -0.74476939 2.4133332
-0.82839036 -0.7452808 2.4175
-0.95612425 -0.73567313 2.414
-0.94563413 -0.73459244 2.4130001
-0.93631947 -0.73226881 2.4130001
-0.92817569 -0.73135841 2.4100001
-0.83185136 -0.73489785 2.414
-0.82890439 -0.73875046 2.4189999
-0.98321271 -0.72687316 2.4156668
-0.97398841 -0.72559536 2.414
-0.96466798 -0.72559536 2.414
-0.95651895 -0.72511977 2.415
-0.94564319 -0.72511977 2.4150002
-0.93670654 -0.72559536 2.414
-0.92583477 -0.72500962 2.4136
-0.91497493 -0.72499228 2.4120002
-0.90956569 -0.72671485 2.4100001
-0.83219594 -0.72589689 2.415
-0.82787639 -0.72386897 2.4159999
-0.98097879 -0.71629286 2.414
-0.97530437 -0.71590948 2.4153333
-0.96577489 -0.71536952 2.4155998
-0.9576776 -0.71861851 2.414
-0.94369692 -0.71629286 2.414
-0.93670654 -0.71629286 2.414
-0.92505598 -0.71629286 2.4139998
-0.91340542 -0.71629286 2.414
-0.82719111 -0.71861851 2.414
-1.0110298 -0.70612425 2.4189999
-0.98097879 -0.70931602 2.414
-0.97455662 -0.7040841 2.4173334
-0.96420193 -0.70373452 2.414
-0.95712787 -0.70364785 2.4184999
-0.94602704 -0.70931602 2.414
-0.93748325 -0.70776558 2.414
-0.92505598 -0.70931602 2.414
-0.91340542 -0.70466477 2.4139998
-0.83202362 -0.70248121 2.4145
-0.98260427 -0.69651443 2.418
-0.96526885 -0.69579434 2.4155002
-0.93670654 -0.69536227 2.414
-0.92575806 -0.69518822 2.4134002
-0.9170348 -0.69516897 2.4133332
-0.89709461 -0.69303668 2.414
-0.86733979 -0.69206935 2.4133332
-0.85550678 -0.69332278 2.415
-0.84350193 -0.69536227 2.414
-0.83668482 -0.69782901 2.4145
-0.94641089 -0.68267465 2.4129999
-0.93534899 -0.68506408 2.4105
-0.9268809 -0.68201542 2.4106667
-0.91457474 -0.68309957 2.4133999
-0.90448618 -0.68577361 2.4129999
-0.89407665 -0.68495774 2.4133999
-0.88480383 -0.68323815 2.41225
-0.87270755 -0.68056166 2.411
-0.86597645 -0.68465239 2.4155998
-1.0159304 -0.67210597 2.414
-1.0066102 -0.67210597 2.414
-0.9972896 -0.67210597 2.414
-0.94602704 -0.67443156 2.414
-0.9367066 -0.67443162 2.414
-0.92505598 -0.67443156 2.4139998
-0.91340542 -0.67443156 2.414
-0.90408492 -0.67675722 2.414
-0.89476448 -0.67675722 2.414
-0.88527703 -0.6756708 2.4156668
-0.87477458 -0.67312765 2.4134998
-0.86913323 -0.67675722 2.414
-1.0066102 -0.66745472 2.414
-0.99475241 -0.6649918 2.4135001
-0.94602704 -0.66512907 2.414
-0.93748325 -0.66590428 2.414
-0.92412394 -0.66559422 2.414
-0.91481113 -0.66636515 2.4156668
-0.99262929 -0.65582657 2.414
-0.94602704 -0.65582657 2.414
-0.93631953 -0.655554 2.4130001
-0.9248634 -0.65569025 2.4134998
-0.91573554 -0.65582657 2.414
-0.99418914 -0.64616573 2.4144001
-0.94602704 -0.64652407 2.414
-0.93670654 -0.64652407 2.414
-0.92505598 -0.64652407 2.4139998
-0.91573554 -0.64652407 2.414
-0.99721891 -0.63484961 2.4138334
-0.94602704 -0.63489598 2.4139998
-0.93670654 -0.63489598 2.4139998
-0.92505592 -0.63489604 2.4139998
-0.91573554 -0.63489598 2.414
-0.94602704 -0.62326789 2.414
-0.93670654 -0.62326783 2.414
-0.92505598 -0.62326783 2.4139998
-0.9172529 -0.62663007 2.418
-0.94602704 -0.61396527 2.414
-0.93670654 -0.61396527 2.414
-0.92531019 -0.61413425 2.4146669
-0.94602704 -0.60466278 2.414
-0.93670654 -0.60466278 2.414
-0.92738605 -0.60466278 2.414
-0.94602704 -0.59536028 2.414
-0.93670654 -0.59536028 2.414
-0.92738611 -0.59536028 2.414
-0.94632167 -0.58623916 2.4147501
-0.93670654 -0.58605778 2.414
-0.92738611 -0.58605778 2.414
-0.93748331 -0.57598013 2.414
-0.92039579 -0.57442969 2.414
-0.94098163 -0.56629765 2.4189999
-0.93657494 -0.56861818 2.4156668
-0.99660808 -0.5287919 2.418
-0.76384175 -0.85096341 2.4200001
-0.81055987 -0.84163779 2.4200001
-0.77318537 -0.8463006 2.4200001
-0.82024229 -0.83498847 2.421
-0.82080698 -0.82389015 2.4226668
-0.82635975 -0.80455559 2.4206667
-0.82508636 -0.79316902 2.4215
-0.82274854 -0.78383768 2.4215
-0.81990349 -0.77402699 2.4200001
-1.0226896 -0.76144749 2.4245
-0.82627892 -0.76160502 2.425
-1.0237442 -0.75054628 2.427
-1.0471709 -0.74119365 2.427
-1.0378002 -0.74119365 2.427
-1.0237548 -0.74318558 2.4233334
-1.0331149 -0.73651737 2.427
-1.0229006 -0.73357415 2.425
-1.0131197 -0.73093641 2.424
-1.005209 -0.73199177 2.4275
-0.99697036 -0.73519915 2.4226668
-0.95423263 -0.73296916 2.4229999
-0.83061779 -0.73093641 2.424
-0.82958978 -0.73469651 2.421
-1.0663513 -0.72746432 2.428
-1.0450134 -0.72566664 2.4219999
-1.0237441 -0.72482467 2.427
-1.0118659 -0.72303468 2.421
-1.0088562 -0.72422928 2.425
-0.98849708 -0.72303468 2.421
-0.95324755 -0.72055346 2.4205
-1.0616641 -0.71810788 2.428
-1.0537646 -0.71751642 2.4260001
-1.0467395 -0.71751642 2.4260001
-1.0355552 -0.71275985 2.4217501
-1.0263108 -0.71166664 2.4219999
-1.0123925 -0.71439689 2.4259999
-1.0088562 -0.7172206 2.425
-0.98849708 -0.71370518 2.421
-0.97657055 -0.71487761 2.4223335
-0.96104968 -0.71414596 2.4225001
-0.95521957 -0.71736848 2.4254999
-0.82924712 -0.71341038 2.4200001
-1.0535458 -0.7080217 2.4254999
-1.0355196 -0.70690268 2.4216669
-1.027582 -0.70787573 2.425
-1.0142311 -0.70524341 2.4266665
-1.0088562 -0.70787573 2.425
-0.98646498 -0.70459318 2.4217501
-0.96005797 -0.70175338 2.4200001
-0.9553861 -0.70641619 2.4200001
-0.83164579 -0.70378327 2.427
-0.9855693 -0.69328344 2.4229999
-0.97527897 -0.69561851 2.4230001
-0.96386647 -0.69560599 2.4256668
-0.9579522 -0.6966238 2.4264998
-0.85507244 -0.69443065 2.427
-0.83633107 -0.69910693 2.427
-0.99328959 -0.68507802 2.427
-0.86444306 -0.68507802 2.427
-1.0243976 -0.67928034 2.4229999
-1.0142027 -0.67871964 2.421
-1.0048552 -0.67871964 2.421
-0.99439764 -0.67488629 2.424
-0.9107331 -0.67296964 2.4254999
-0.90315056 -0.67489016 2.424
-0.89613128 -0.67489016 2.424
-0.88998073 -0.67377651 2.4200001
-0.87741315 -0.67021966 2.424
-0.86805403 -0.67722255 2.424
-0.98972201 -0.66321385 2.424
-0.91447204 -0.66294032 2.4230001
-0.98972201 -0.65387285 2.424
-0.91409457 -0.65333331 2.4219999
-0.99287838 -0.64506555 2.4260001
-0.9148494 -0.64452988 2.424
-0.99522197 -0.63571292 2.4260001
-0.91579294 -0.63584638 2.4265001
-0.99908108 -0.62584972 2.424
-0.95617563 -0.62299997 2.4219999
-0.91877025 -0.62299997 2.4219999
-1.0003176 -0.61493355 2.427
-0.99908108 -0.61884391 2.424
-0.95617563 -0.616 2.4219999
-0.92028767 -0.61468017 2.4260001
-0.91877025 -0.61833334 2.4219999
-0.95617563 -0.60666668 2.4219999
-0.92344594 -0.60666668 2.4219999
-0.95617563 -0.59499997 2.4219999
-0.92344594 -0.59499997 2.4219999
-0.95474809 -0.58263546 2.4223335
-0.94721532 -0.58123988 2.4230001
-0.93407589 -0.58179963 2.4253333
-0.92315441 -0.58335513 2.4253333
-0.95452678 -0.57441354 2.4237502
-0.94721532 -0.57423699 2.4230001
-0.93279725 -0.574 2.4219999
-0.92694759 -0.57345891 2.4230001
-0.9193393 -0.57435405 2.4235001
-0.94799709 -0.56770229 2.425
-0.93395269 -0.56770229 2.425
-0.99908108 -0.5441156 2.424
-1.0003176 -0.53543645 2.427
-0.99990547 -0.53989017 2.4260001
-0.81406999 -0.84299082 2.434
-0.81598437 -0.83504486 2.4333999
-0.8209585 -0.82876784 2.437
-0.82566315 -0.81702888 2.437
-0.82397383 -0.80549943 2.4347999
-0.82229447 -0.79491621 2.434
-1.0297008 -0.78424859 2.4300001
-0.82184911 -0.78585839 2.4350002
-1.0559363 -0.77520323 2.431
-1.045995 -0.77420229 2.4308
-1.0361584 -0.77453417 2.431
-0.8228026 -0.77429336 2.4355001
-1.0653224 -0.7634933 2.431
-1.0559363 -0.7634933 2.431
-1.0465502 -0.7634933 2.431
-1.0348176 -0.7634933 2.431
-0.82566315 -0.76537764 2.437
-1.0629759 -0.75412524 2.431
-1.0559363 -0.75412524 2.431
-1.0465502 -0.75412524 2.431
-1.0348176 -0.7541253 2.431
-0.83019739 -0.75583094 2.4365001
-1.0958272 -0.74475724 2.431
-1.0813031 -0.74210984 2.4300001
-1.0747085 -0.74475724 2.431
-1.0465502 -0.74709922 2.431
-1.0363818 -0.74553794 2.431
-1.0207384 -0.74241525 2.431
-1.0136988 -0.74241525 2.431
-1.0066593 -0.74241525 2.431
-0.83036774 -0.74659538 2.437
-1.094263 -0.73460859 2.431
-1.0839828 -0.73531336 2.4307499
-1.0747085 -0.73538917 2.431
-1.0207384 -0.73538923 2.431
-1.0136988 -0.73773122 2.431
-1.0066593 -0.73538923 2.431
-0.83036774 -0.73016089 2.437
-1.0911342 -0.72836322 2.431
-1.0849214 -0.72485256 2.4317999
-1.0747085 -0.72602117 2.431
-1.0676689 -0.72367918 2.431
-1.0207384 -0.72602117 2.431
-1.0043128 -0.72602117 2.431
-0.99727315 -0.72602117 2.431
-0.82654983 -0.72330475 2.4350002
-1.081748 -0.71665317 2.431
-1.0747085 -0.71665317 2.431
-1.0661045 -0.71587253 2.431
-1.0559363 -0.71431118 2.431
-1.0488967 -0.71431118 2.431
-1.0230849 -0.71665317 2.431
-1.0043128 -0.71665317 2.431
-0.99727315 -0.71665317 2.431
-0.95972878 -0.71431118 2.431
-0.82900482 -0.71724081 2.4330001
-1.0653224 -0.70728517 2.431
-1.0559363 -0.70260119 2.431
-1.0470195 -0.70400637 2.431
-1.0348176 -0.70260113 2.431
-1.0235542 -0.70400637 2.431
-1.0136988 -0.70025915 2.431
-1.0043129 -0.70494318 2.431
-0.99727315 -0.70494318 2.431
-0.98319399 -0.70494318 2.431
-0.8330164 -0.70494318 2.431
-1.0535898 -0.69557512 2.431
-1.0465502 -0.69323313 2.431
-1.0348176 -0.69323319 2.431
-1.0230849 -0.69323313 2.431
-1.0136988 -0.69323313 2.431
-1.0043128 -0.69323313 2.431
-0.99727315 -0.69323313 2.431
-0.98319399 -0.69089115 2.431
-0.97615445 -0.69089115 2.431
-0.96676832 -0.69089115 2.431
-0.95972878 -0.69089115 2.431
-0.8611747 -0.69089115 2.431
-0.85319012 -0.69671965 2.4349999
-1.0442036 -0.68620712 2.431
-1.0348176 -0.68503612 2.431
-1.0230849 -0.68620712 2.431
-1.0136988 -0.68620712 2.431
-1.0043128 -0.68620712 2.431
-0.99414444 -0.68464583 2.431
-0.98554057 -0.68386513 2.431
-0.97615445 -0.68386513 2.431
-0.96676832 -0.68386513 2.431
-0.95972878 -0.68386513 2.431
-0.86547345 -0.68541372 2.4365001
-0.99258012 -0.67683911 2.431
-0.98554057 -0.67449713 2.431
-0.97615445 -0.67449707 2.431
-0.96676832 -0.67449713 2.431
-0.95972878 -0.67449713 2.431
-0.90390509 -0.67252374 2.4323332
-0.89476162 -0.67270809 2.4330001
-0.88735044 -0.67243159 2.4320002
-0.87669402 -0.67326105 2.4349999
-0.868361 -0.67878807 2.438
-0.98554057 -0.66512913 2.431
-0.97615445 -0.66512907 2.431
-0.96676832 -0.66512907 2.431
-0.95972878 -0.66512907 2.431
-0.91354918 -0.66567433 2.4330001
-0.90753442 -0.66663933 2.4336667
-0.98554057 -0.65576112 2.431
-0.97615445 -0.65576112 2.431
-0.96676832 -0.65576106 2.431
-0.95972878 -0.65576112 2.431
-0.91580206 -0.65556931 2.4389999
-0.99258012 -0.64405107 2.431
-0.98551738 -0.64402062 2.4334285
-0.97615445 -0.64639306 2.431
-0.96676832 -0.64639306 2.431
-0.95972878 -0.64639306 2.431
-0.99272996 -0.63435429 2.4342499
-0.98445362 -0.63494414 2.438
-0.97380793 -0.63702506 2.431
-0.96676832 -0.63702506 2.431
-0.95972878 -0.63702506 2.431
-0.99727315 -0.62531501 2.431
-0.97527671 -0.62625307 2.4346666
-0.96676832 -0.62531501 2.431
-0.95972878 -0.62999904 2.431
-0.91749126 -0.62531501 2.431
-1.0043128 -0.61126298 2.431
-0.99666387 -0.61467654 2.43525
-0.98930931 -0.6144889 2.4345
-0.97701252 -0.61562425 2.4389999
-0.96676832 -0.61360502 2.431
-0.92218435 -0.61126298 2.431
-0.91805744 -0.6139822 2.4324999
-1.0043128 -0.60423696 2.431
-0.98677987 -0.60469681 2.4359999
-0.97480941 -0.60486078 2.4335001
-0.96676832 -0.60423696 2.431
-0.92370176 -0.60523027 2.4349999
-1.0043128 -0.59486902 2.431
-0.99676979 -0.59362382 2.4355001
-0.9854269 -0.59612358 2.4342
-0.97537231 -0.59408832 2.431
-0.96676832 -0.59486902 2.431
-0.92200583 -0.5965485 2.4346666
-1.0044392 -0.58694607 2.437
-0.9932881 -0.58495712 2.4384999
-0.98496854 -0.58514929 2.4354
-0.97577477 -0.58652347 2.4319999
-0.96676832 -0.58550096 2.431
-0.92218435 -0.58784294 2.431
-0.91818637 -0.58459634 2.437
-0.99113798 -0.57332945 2.4389999
-0.9740352 -0.57461321 2.4345
-0.96638292 -0.57714963 2.4319999
-0.91786873 -0.57636899 2.4320002
-0.99113798 -0.56628031 2.4389999
-0.98991895 -0.5608902 2.4360001
-0.96222907 -0.56589013 2.4373333
-0.95347136 -0.56598425 2.431
-0.94330311 -0.56442291 2.431
-0.93313479 -0.56598425 2.431
-0.92497414 -0.56469154 2.4321666
-1.0019662 -0.55271292 2.431
-0.99408758 -0.55256146 2.4324
-0.98788708 -0.5550549 2.431
-0.96288705 -0.55453181 2.4389999
-0.95268917 -0.5550549 2.431
-0.94330311 -0.5550549 2.431
-0.93455571 -0.55543292 2.4326665
-0.99533594 -0.54356748 2.4319999
-0.98829347 -0.54356742 2.4320002
-0.95268917 -0.54334486 2.431
-0.94330311 -0.54334486 2.431
-0.93544978 -0.54423892 2.4349999
-1.0001447 -0.53786319 2.438
-0.99451715 -0.5350219 2.43575
-0.98716211 -0.53250962 2.4349999
-0.95268917 -0.53397691 2.431
-0.94330311 -0.53397685 2.431
-0.93544978 -0.53485548 2.4349999
-1.0036148 -0.5278179 2.4349999
-0.95268917 -0.52460885 2.431
-0.94330311 -0.52460885 2.431
-0.93597776 -0.52611077 2.4343336
-0.95288467 -0.51534635 2.4315
-0.94473237 -0.51637441 2.4326665
-0.95817852 -0.49578899 2.4389999
-0.95347005 -0.46759248 2.4389999
-0.94366598 -0.45330828 2.438
-0.93425286 -0.45330828 2.438
-0.94405305 -0.44879478 2.4389999
-0.82735711 -0.73165894 2.4419999
-0.86123794 -0.69236946 2.4445
-0.85346186 -0.69651109 2.4425001
-0.84586775 -0.69843644 2.441
-0.86577994 -0.68516761 2.444
-0.90500385 -0.67213869 2.448
-0.88646233 -0.67241329 2.4489999
-0.87267518 -0.67561126 2.4435
-0.91767955 -0.66162235 2.444
-0.90972972 -0.66742194 2.448
-0.91918147 -0.65327168 2.448
-0.9886539 -0.63585305 2.4445
-0.99459875 -0.6270836 2.4452
-0.98571867 -0.62445807 2.4460001
-0.91918147 -0.62732947 2.448
-0.98660684 -0.61593193 2.4433334
-1.0013754 -0.60672253 2.441
-0.99761581 -0.60494858 2.4433334
-0.98607016 -0.6077559 2.4420002
-0.92239773 -0.60746729 2.444
-1.0024011 -0.5955689 2.4435
-0.92164284 -0.59520805 2.4419999
-1.0032215 -0.58427894 2.4454999
-0.99829626 -0.58415896 2.4449999
-0.98703623 -0.58308721 2.4405
-0.918055 -0.58651733 2.4449999
-1.0058223 -0.57465893 2.448
-0.9995212 -0.57544506 2.448
-0.98548508 -0.5741508 2.4425001
-0.97270274 -0.5712139 2.4400001
-0.9687857 -0.57168204 2.4419999
-0.92126542 -0.57144797 2.441
-0.91655308 -0.57615125 2.441
-1.0053784 -0.56531936 2.4449999
-0.9974798 -0.56485844 2.4430001
-0.98499459 -0.56480002 2.4447999
-0.9739877 -0.56592596 2.4456
-0.92390734 -0.56836993 2.448
-0.98466963 -0.55619818 2.4463334
-0.97352898 -0.55657804 2.448
-0.9320246 -0.55577886 2.4445
-0.92863321 -0.55893642 2.448
-0.9838596 -0.54568642 2.4459999
-0.97352904 -0.5447861 2.448
-0.96328187 -0.54535645 2.4400001
-0.93335903 -0.54242772 2.448
-0.99006951 -0.53063583 2.448
-0.98374963 -0.5349133 2.4459999
-0.97352892 -0.53299421 2.448
-0.96328187 -0.53595376 2.4400001
-0.93335903 -0.53299421 2.448
-1.0065771 -0.52548558 2.4459999
-0.98298073 -0.5235607 2.448
-0.97352892 -0.5235607 2.448
-0.96328187 -0.52655107 2.4400001
-0.93574256 -0.52391714 2.4459999
-1.008973 -0.51412714 2.448
-0.98308128 -0.51417941 2.4482498
-0.97352898 -0.51648551 2.448
-0.96262836 -0.51528549 2.4423335
-0.95462549 -0.51176876 2.448
-0.94369709 -0.51499057 2.4453998
-0.9384681 -0.51669651 2.4489999
-1.008973 -0.50469363 2.448
-0.98061776 -0.50469363 2.448
-0.96132141 -0.50213009 2.447
-0.95549315 -0.5048753 2.4466
-0.94773018 -0.50479621 2.4484999
-1.0058887 -0.49490726 2.44625
-0.99520171 -0.49310306 2.4489999
-0.98298073 -0.49526012 2.448
-0.97609115 -0.49536079 2.4484999
-0.9668349 -0.49782175 2.4489999
-0.95817178 -0.49465704 2.4449999
-1.0056826 -0.48538172 2.44575
-0.983181 -0.48828465 2.4484999
-1.0058882 -0.47605082 2.44625
-0.96171427 -0.47639304 2.448
-0.95462549 -0.47639307 2.448
-0.94517374 -0.47639304 2.448
-1.0105932 -0.46552843 2.4405
-1.008973 -0.46695954 2.448
-0.96171427 -0.46460116 2.448
-0.95511949 -0.46662402 2.44625
-0.94517374 -0.46695954 2.448
-0.9380849 -0.46695954 2.448
-1.0136988 -0.457526 2.448
-1.0076718 -0.45686379 2.4486666
-0.96171427 -0.45516762 2.448
-0.95580691 -0.45634681 2.448
-0.94456255 -0.45559034 2.4452
-0.9380849 -0.45988438 2.448
-1.008973 -0.44101733 2.448
-0.96171427 -0.44337571 2.448
-0.95462549 -0.44337571 2.448
-0.94662899 -0.446877 2.4456666
-1.0042471 -0.43630058 2.448
-0.9995212 -0.43630058 2.448
-0.96210712 -0.4317601 2.4489999
-0.95501542 -0.4317601 2.4489999
-0.94753665 -0.42215028 2.448
-0.95409775 -0.41597494 2.4486666
-0.96210712 -0.39401057 2.4489999
-0.95462549 -0.39620808 2.448
-0.9453668 -0.3962895 2.4484999
-0.96171427 -0.38913295 2.448
-0.95462549 -0.38677454 2.448
-0.94517374 -0.38677454 2.448
-0.96171427 -0.37498266 2.448
-0.95415288 -0.37592602 2.448
-0.94753665 -0.37498268 2.448
-0.91669691 -0.66196334 2.454
-0.92068338 -0.64489013 2.4519999
-0.92218536 -0.63647789 2.4560001
-0.91744405 -0.6317457 2.4560001
-0.92030793 -0.62101442 2.451
-0.91744405 -0.6270135 2.4560001
-0.92218536 -0.60335261 2.4560001
-0.92162216 -0.59589165 2.4545002
-1.0102094 -0.58323407 2.451
-0.91744405 -0.58678997 2.4560001
-1.0110338 -0.57898366 2.4530001
-0.92218536 -0.57022738 2.4560001
-0.91868824 -0.57662332 2.4530001
-0.92379922 -0.56503469 2.454
-0.93564671 -0.55084974 2.454
-0.92724514 -0.55684972 2.4526665
-0.93166798 -0.54420042 2.4560001
-1.0003378 -0.5310694 2.45
-0.99560815 -0.5310694 2.45
-0.93166798 -0.53473604 2.4560001
-1.0055364 -0.52584553 2.4549999
-0.99434751 -0.52577394 2.4546669
-0.9342283 -0.52537906 2.4565001
-1.0056731 -0.51645476 2.4553335
-0.99370944 -0.51601636 2.457
-0.97947973 -0.5136503 2.457
-0.96959847 -0.51344126 2.4560001
-0.9415338 -0.5136503 2.457
-0.93679053 -0.5183844 2.457
-1.0077341 -0.50644654 2.4565001
-0.98836243 -0.50624037 2.4555001
-0.97928041 -0.50644654 2.4565001
-0.96841407 -0.50572157 2.4530001
-0.9460845 -0.50644559 2.4565001
-1.0027877 -0.49924472 2.4560001
-0.99425435 -0.4961729 2.4524999
-0.97658271 -0.49484745 2.4576666
-0.96386826 -0.49400914 2.4535
-0.95203042 -0.4987365 2.4535
-1.003196 -0.48524567 2.457
-0.99350727 -0.48751301 2.4565001
-0.98538613 -0.48465317 2.454
-0.96786022 -0.48607358 2.4563999
-0.94076735 -0.48012042 2.4549999
-1.0057716 -0.47350723 2.4575
-0.96999323 -0.4734104 2.457
-0.94076735 -0.47539017 2.4549999
-0.93602794 -0.47065991 2.4549999
-1.0079392 -0.4639422 2.457
-0.96999323 -0.4639422 2.457
-0.93602794 -0.46356452 2.4549999
-1.0122703 -0.45192295 2.4560001
-1.003196 -0.45684105 2.457
-0.96999323 -0.454474 2.457
-0.94076735 -0.45173889 2.4549999
-0.93602794 -0.45646915 2.4549999
-1.0155686 -0.44567406 2.4563334
-1.0079392 -0.44263873 2.457
-0.96999323 -0.44500577 2.457
-0.9502461 -0.44227841 2.4549999
-0.94273227 -0.44403532 2.4560001
-1.0122703 -0.43536031 2.4560001
-1.0079392 -0.43317053 2.457
-0.99845272 -0.43790463 2.457
-0.970388 -0.43334681 2.4579999
-0.95234394 -0.4362084 2.4563334
-0.96722877 -0.42826205 2.4559999
-0.95405406 -0.42679963 2.4566667
-0.94589192 -0.42352989 2.4560001
-0.9630748 -0.41668642 2.4575
-0.9502461 -0.41626203 2.4549999
-0.94409895 -0.41431844 2.4575
-0.97078288 -0.40035743 2.4590001
-0.96089768 -0.40729862 2.4579999
-0.9549855 -0.40680152 2.4549999
-0.97058547 -0.39317101 2.4584999
-0.96250004 -0.3988921 2.45
-0.94076735 -0.3949759 2.4549999
-0.96387506 -0.38291955 2.4535
-0.94294453 -0.38307273 2.4545
-0.96050674 -0.37162718 2.457
-0.94550675 -0.37368977 2.4549999
-0.95339191 -0.364526 2.457
-0.94589186 -0.36437666 2.4559999
-1.0031538 -0.52316761 2.4646666
-1.0040829 -0.51294798 2.4649999
-0.99694496 -0.51057321 2.4649999
-0.97791022 -0.51294798 2.4649999
-1.0028828 -0.50403661 2.464
-0.99654055 -0.50561851 2.464
-0.97751349 -0.50561851 2.464
-1.0017036 -0.49157512 2.4649999
-0.97791022 -0.49157512 2.4649999
-1.0017036 -0.48445085 2.4649999
-0.99456561 -0.48207608 2.4649999
-0.98425514 -0.48365927 2.4649999
-0.97791022 -0.48445085 2.4649999
-0.96324325 -0.48662812 2.464
-1.0032898 -0.47416022 2.4649999
-0.99456561 -0.47495183 2.4649999
-0.98504829 -0.4749518 2.4649999
-0.97791022 -0.4749518 2.4649999
-1.0040829 -0.46545279 2.4649999
-0.99456561 -0.46545279 2.4649999
-0.98504823 -0.46545279 2.4649999
-0.97791022 -0.46545279 2.4649999
-1.0112211 -0.45357898 2.4649999
-1.0032898 -0.45516217 2.4649999
-0.99456561 -0.45595375 2.4649999
-0.98504829 -0.45595375 2.4649999
-0.97791022 -0.45595375 2.4649999
-1.0112211 -0.44882947 2.4649999
-1.0040829 -0.4464547 2.4649999
-0.99456561 -0.4464547 2.4649999
-0.98504829 -0.4464547 2.4649999
-0.97791022 -0.4464547 2.4649999
-1.0040829 -0.43458092 2.4649999
-0.99456561 -0.43695569 2.4649999
-0.98504829 -0.43695566 2.4649999
-0.97791022 -0.43695569 2.4649999
-0.96601349 -0.43933043 2.4649999
-1.013207 -0.42511597 2.4651999
-1.004083 -0.42508188 2.4649999
-0.99456555 -0.42508188 2.4649999
-0.98504823 -0.42508188 2.4649999
-0.97600669 -0.42413196 2.4649999
-0.96522039 -0.42666504 2.4649999
-1.0064623 -0.41558284 2.4649999
-0.9731515 -0.41558284 2.4649999
-0.96839285 -0.41320807 2.4649999
-0.97791022 -0.40133429 2.4649999
-0.96839285 -0.40608379 2.4649999
-0.97791022 -0.39421001 2.4649999
-0.97513902 -0.38218111 2.464
-0.97354639 -0.37773991 2.4660001
-0.96721423 -0.37238342 2.4619999
-0.96542716 -0.36549133 2.4635
-0.95494497 -0.36512041 2.461
-0.9659158 -0.35617751 2.4647501
-0.95620489 -0.35610476 2.4642498
-0.96601349 -0.34671482 2.4649999
-0.96601343 -0.33484101 2.4649999
-0.96601343 -0.32296723 2.4649999
-0.96601349 -0.31346822 2.4649999
-0.96601349 -0.30396914 2.4649999
-0.95649612 -0.30396914 2.4649999
-0.96601349 -0.29447013 2.4649999
-0.95649612 -0.29447013 2.4649999
-0.96601343 -0.28497109 2.4649999
-0.95649612 -0.28497109 2.4649999
-0.96601349 -0.27547204 2.4649999
-0.95649612 -0.27547204 2.4649999
-0.96601343 -0.26597303 2.4649999
-0.95649612 -0.26597303 2.4649999
-0.96601343 -0.25647396 2.4649999
-0.95649612 -0.25647399 2.4649999
-0.95570302 -0.24776654 2.4649999
