# .PCD v0.7 - Point Cloud Data file format
VERSION 0.7
FIELDS x y z
SIZE 4 4 4
TYPE F F F
COUNT 1 1 1
WIDTH 160
HEIGHT 1
VIEWPOINT 0 0 0 1 0 0 0
POINTS 160
DATA ascii
-0.61524421 -0.19424278 2.168
-0.60268819 -0.19424278 2.168
-0.59585905 -0.19406357 2.1659999
-0.64076495 -0.19290704 2.1765001
-0.63511223 -0.19359247 2.1763334
-0.62598819 -0.19288512 2.17625
-0.61386991 -0.19165969 2.1742501
-0.60463321 -0.19067919 2.175
-0.59459007 -0.1908253 2.1766667
-0.58573842 -0.19067919 2.175
-0.6410594 -0.18460357 2.1775
-0.6340251 -0.18439306 2.175
-0.6256274 -0.18439306 2.175
-0.61513036 -0.18439306 2.175
-0.60463321 -0.18439305 2.175
-0.59916025 -0.18674566 2.178
-0.63439065 -0.176112 2.17625
-0.6256274 -0.17601155 2.175
-0.61513025 -0.17601155 2.175
-0.60463321 -0.17601156 2.175
-0.62410003 -0.16848202 2.177
-0.61513025 -0.16972543 2.175
-0.60504878 -0.16984248 2.1764998
-0.63729435 -0.15324374 2.1789999
-0.63729435 -0.14904527 2.1789999
-0.65412062 -0.1364499 2.1789999
-0.64721525 -0.13632467 2.177
-0.63729435 -0.1364499 2.1789999
-0.59413606 -0.10267341 2.175
-0.59623551 -0.094291903 2.175
-0.59739256 -0.084577389 2.1766667
-0.64778185 -0.19374856 2.1859999
-0.63395941 -0.19129287 2.1819999
-0.58394599 -0.1935713 2.184
-0.6613484 -0.18557996 2.1889999
-0.65500963 -0.18557996 2.1889999
-0.64763367 -0.18527985 2.1854999
-0.60081083 -0.18305202 2.184
-0.59516752 -0.1853656 2.1865001
-0.5849992 -0.18564548 2.1847999
-0.6613484 -0.1771445 2.1889999
-0.65500963 -0.17714451 2.1889999
-0.64621443 -0.17494009 2.1878333
-0.63577509 -0.17019364 2.181
-0.6009025 -0.17466186 2.1843333
-0.59584749 -0.1771445 2.1889999
-0.64359981 -0.16491309 2.1889999
-0.63388026 -0.16449133 2.1889999
-0.62546396 -0.16361079 2.1866665
-0.61472249 -0.16445327 2.1884999
-0.60500354 -0.16378836 2.1889999
-0.64444494 -0.15605587 2.1889999
-0.634682 -0.15636358 2.1873999
-0.62542856 -0.15605587 2.1889999
-0.61486387 -0.15605585 2.1889999
-0.60429919 -0.15605587 2.1889999
-0.59584749 -0.15394701 2.1889999
-0.66346133 -0.14129382 2.1889999
-0.65652221 -0.14116473 2.187
-0.64444494 -0.14972928 2.1889999
-0.63582271 -0.14531213 2.1859999
-0.62542856 -0.14972928 2.1889999
-0.6169768 -0.14972928 2.1889999
-0.66104633 -0.13279769 2.188
-0.65923357 -0.13663776 2.1819999
-0.64555913 -0.13420166 2.188
-0.63497299 -0.13475288 2.1854999
-0.62754148 -0.13707609 2.1889999
-0.65893149 -0.12817052 2.181
-0.64323753 -0.12502545 2.1889999
-0.63599318 -0.12864065 2.1889999
-0.64233202 -0.11598747 2.1889999
-0.63599318 -0.11598747 2.1889999
-0.59584749 -0.11176974 2.1889999
-0.58105689 -0.11176974 2.1889999
-0.57260519 -0.11598747 2.1889999
-0.60463548 -0.10608188 2.1876667
-0.59560549 -0.10521701 2.1842501
-0.58528274 -0.10544315 2.1889999
-0.60475004 -0.094638728 2.1829998
-0.59501278 -0.094697103 2.1844001
-0.61063802 -0.08435452 2.1889999
-0.60433447 -0.084065028 2.1815
-0.59659457 -0.082057804 2.184
-0.62542856 -0.075919069 2.1889999
-0.61486387 -0.075919069 2.1889999
-0.62542856 -0.067483619 2.1889999
-0.66376543 -0.19260791 2.197
-0.65740347 -0.19260791 2.197
-0.66285908 -0.1712081 2.194
-0.6559093 -0.17105204 2.1919999
-0.66255182 -0.16585003 2.1976666
-0.65550226 -0.16408639 2.1930001
-0.64896721 -0.16245665 2.1900001
-0.66012448 -0.15465029 2.1989999
-0.65508395 -0.15446468 2.1963332
-0.64911532 -0.15616331 2.1905
-0.60540348 -0.1500029 2.1930001
-0.68497199 -0.14392871 2.197
-0.67178905 -0.14383188 2.1954999
-0.66618919 -0.14610982 2.198
-0.65475637 -0.14489208 2.1924
-0.64714962 -0.14564499 2.191
-0.63349903 -0.14379287 2.1949999
-0.62445468 -0.14577746 2.1930001
-0.61353701 -0.14727329 2.1943333
-0.6716361 -0.13745183 2.1949999
-0.66587842 -0.13713874 2.1900001
-0.65545899 -0.13294941 2.1905
-0.6323446 -0.13297977 2.191
-0.62840152 -0.13304046 2.1919999
-0.66538 -0.12605812 2.1929998
-0.65598285 -0.12671989 2.1922498
-0.64941168 -0.12245232 2.1915002
-0.63590491 -0.12482177 2.1960001
-0.66346335 -0.11635838 2.1960001
-0.6504488 -0.1120761 2.1949999
-0.64542693 -0.11334842 2.1923332
-0.63529438 -0.11355587 2.1963332
-0.59481955 -0.11619943 2.1930001
-0.61203283 -0.10568401 2.194
-0.62530893 -0.099433534 2.1960001
-0.61406976 -0.096725821 2.1922002
-0.58687669 -0.097552791 2.1917999
-0.62276208 -0.082452312 2.1945
-0.61612791 -0.084528416 2.1935
-0.59385782 -0.085276164 2.1946666
-0.63321042 -0.076092482 2.194
-0.60601801 -0.076747589 2.1926668
-0.59720564 -0.078206167 2.194
-0.63401157 -0.064122677 2.1943333
-0.62135231 -0.06561368 2.197
-0.61533135 -0.069645472 2.1906667
-0.60890538 -0.069878608 2.198
-0.67591316 -0.17423072 2.2054999
-0.6698311 -0.17615511 2.2030001
-0.67545414 -0.16561899 2.204
-0.6698311 -0.16342101 2.2030001
-0.69353759 -0.15287861 2.204
-0.6847682 -0.15494365 2.2031667
-0.67542493 -0.15504684 2.2046001
-0.666287 -0.15563905 2.2030001
-0.69353759 -0.14438535 2.204
-0.68212497 -0.14422205 2.2014999
-0.67833692 -0.14431986 2.2030001
-0.6940881 -0.13599831 2.20575
-0.68471622 -0.13583045 2.2030001
-0.67691928 -0.135123 2.2030001
-0.6698311 -0.13370809 2.2030001
-0.68549418 -0.1274841 2.2055001
-0.67615348 -0.12613468 2.2042003
-0.66517597 -0.12090077 2.2016666
-0.65707242 -0.12097399 2.2030001
-0.67317855 -0.11694123 2.207
-0.66420799 -0.11473362 2.2055001
-0.65751982 -0.11468353 2.2045002
-0.65539336 -0.10618979 2.2045002
-0.63287836 -0.084174059 2.2026665
-0.62460816 -0.086937375 2.201
-0.64381492 -0.072623312 2.2042
