# .PCD v0.7 - Point Cloud Data file format
VERSION 0.7
FIELDS x y z
SIZE 4 4 4
TYPE F F F
COUNT 1 1 1
WIDTH 180
HEIGHT 1
VIEWPOINT 0 0 0 1 0 0 0
POINTS 180
DATA ascii
-1.0621419 -0.0422052 2.5769999
-1.0559362 -0.042156067 2.5739999
-1.0571669 -0.037239883 2.5769999
-1.0609053 -0.014878612 2.5739999
-1.0609053 -0.0049595372 2.5739999
-1.0609053 0.0049595372 2.5739999
-1.0613174 0.014885357 2.5749998
-1.0604932 0.032224469 2.573
-1.059669 0.037153181 2.5710001
-1.0708436 0.076872826 2.5739999
-1.095805 -0.042352602 2.586
-1.0712577 -0.044860311 2.5869999
-1.0637674 -0.034893066 2.5869999
-1.0637674 -0.024921965 2.5869999
-1.0592182 -0.022387283 2.582
-1.0708436 -0.014947977 2.586
-1.0708436 -0.0049826587 2.586
-1.0708436 0.0049826587 2.586
-1.0720859 0.012471098 2.589
-1.0662634 0.024922926 2.5869999
-1.0812461 0.077261075 2.5869999
-1.095805 0.11709248 2.586
-1.0882819 0.1168208 2.5799999
-1.0937654 -0.05495761 2.5929999
-1.0862567 -0.05495761 2.5929999
-1.0943947 -0.044988438 2.5944998
-1.0859797 -0.045819845 2.5943332
-1.079372 -0.044989884 2.5945001
-1.1028147 -0.034161206 2.5946667
-1.0749846 -0.037514452 2.596
-1.0687364 -0.03247495 2.5929999
-1.1054455 -0.02414804 2.5929999
-1.0978056 -0.024162492 2.5946667
-1.0729141 -0.022465318 2.5910001
-1.0687364 -0.027478805 2.5929999
-1.1062799 -0.014988439 2.5929999
-1.0962683 -0.014988439 2.5929999
-1.079164 -0.014993256 2.5939999
-1.1065997 -0.0049968688 2.59375
-1.0969011 -0.0049999999 2.5945001
-1.078748 -0.0024980733 2.5929999
-1.1129752 0.0041653821 2.595
-1.1062799 0.0074942196 2.5929999
-1.0987712 0.0049961465 2.5929999
-1.0795801 0.0024999999 2.595
-1.1121418 0.0125 2.595
-1.1025482 0.012504817 2.596
-1.1190101 0.024986031 2.5935001
-1.1238002 0.037471097 2.5929999
-1.1261898 0.054162491 2.5946667
-1.0741564 0.05247977 2.5940001
-1.131418 0.067604043 2.599
-1.124667 0.0625 2.595
-1.078748 0.0649499 2.5929999
-1.128806 0.072444119 2.5929999
-1.077916 0.072388247 2.5910001
-1.0862567 0.082436413 2.5929999
-1.128806 0.10741714 2.5929999
-1.1245188 0.11581567 2.5946667
-1.1158609 0.11736416 2.592
-1.1067051 0.11495376 2.5939999
-1.0933436 0.11236994 2.592
-1.1283706 0.12235838 2.592
-1.101126 -0.035123795 2.6044998
-1.0845724 -0.037673414 2.6070001
-1.0787114 -0.032625239 2.605
-1.0960979 -0.025087185 2.6044998
-1.0824922 -0.022560693 2.602
-1.0774691 -0.027574182 2.602
-1.0923287 -0.015037091 2.6015
-1.0889783 -0.015060212 2.6055
-1.0940082 -0.0050236033 2.6055
-1.0858388 -0.0050163777 2.6040001
-1.1076081 0.0025067437 2.602
-1.0967181 0.005009634 2.5999999
-1.0864638 0.0050197495 2.6055
-1.1167953 0.017533718 2.5999999
-1.0975617 0.012533719 2.602
-1.0841564 0.012552986 2.6059999
-1.0766408 0.017533718 2.5999999
-1.1172249 0.025058767 2.6009998
-1.0791254 0.025105972 2.6059999
-1.1218146 0.035067439 2.5999999
-1.076848 0.035074666 2.6005001
-1.1220304 0.045095857 2.6005001
-1.1256979 0.052783236 2.609
-1.1222461 0.062644511 2.6010001
-1.0891873 0.065275528 2.6059999
-1.1318532 0.077649325 2.5999999
-1.1272674 0.072667629 2.6010001
-1.0937983 0.07779865 2.605
-1.0883514 0.072751448 2.6040001
-1.1318532 0.085163772 2.5999999
-1.099249 0.082849711 2.6059999
-1.1318532 0.095183045 2.5999999
-1.1318532 0.10269749 2.5999999
-1.1268339 0.10770713 2.5999999
-1.1318532 0.11271676 2.5999999
-1.1285676 0.11289018 2.6040001
-1.1185136 0.11289018 2.6040001
-1.1038562 0.11293352 2.605
-1.1017799 -0.037745666 2.612
-1.0942162 -0.035229288 2.612
-1.0866525 -0.03271291 2.612
-1.0930972 -0.025996789 2.6113334
-1.0858204 -0.027658958 2.6099999
-1.091277 -0.0075462428 2.6110001
-1.0950567 0.0058715479 2.612
-1.1143861 0.017614644 2.612
-1.1043012 0.017614644 2.612
-1.0953695 0.015116329 2.6147499
-1.0874846 0.017628131 2.6140001
-1.1143861 0.025163777 2.612
-1.1044066 0.025166426 2.6122499
-1.0996766 0.022708092 2.619
-1.1219498 0.035229288 2.612
-1.1144925 0.035232898 2.6122499
-1.1065496 0.034434166 2.6153333
-1.0874846 0.032737959 2.6140001
-1.1223793 0.045313105 2.6129999
-1.1165048 0.044506427 2.615
-1.0866525 0.047811177 2.612
-1.1291497 0.057987478 2.6170001
-1.0862365 0.055338152 2.6110001
-1.1316013 0.067916185 2.6110001
-1.1236306 0.066264607 2.612
-1.115131 0.065470859 2.61375
-1.1049359 0.062945575 2.6135001
-1.0967375 0.065425813 2.612
-1.1324681 0.078037567 2.6129999
-1.1244709 0.07297495 2.612
-1.1136875 0.074662484 2.6123333
-1.1043012 0.075491324 2.612
-1.0963176 0.072947018 2.6110001
-1.1350685 0.085786127 2.619
-1.1072462 0.083072253 2.6129999
-1.0967375 0.088073216 2.612
-1.1323719 0.096631981 2.6166666
-1.1022017 0.093141615 2.6129999
-1.1316013 0.10313199 2.6110001
-1.1252227 0.10575698 2.61375
-1.1143861 0.10820424 2.612
-1.1043012 0.10568786 2.612
-1.1005164 0.02777553 2.6210001
-1.0920608 0.025289018 2.625
-1.1055763 0.037875723 2.6210001
-1.0948036 0.035410885 2.6255
-1.115696 0.047975916 2.6210001
-1.1267142 0.05825337 2.6289999
-1.1165637 0.05825337 2.6289999
-1.1064131 0.05825337 2.6289999
-1.0967104 0.055613682 2.6240001
-1.1140261 0.068384394 2.6289999
-1.1064198 0.068228319 2.6229999
-1.1304439 0.078246623 2.6199999
-1.1224662 0.078395955 2.625
-1.1173986 0.08345376 2.625
-1.1072636 0.088511564 2.625
-1.13217 0.093533725 2.6240001
-1.125386 0.093391135 2.6199999
-1.116973 0.10364547 2.6240001
-1.0996361 0.025346821 2.631
-1.1047152 0.035485551 2.631
-1.0996361 0.038020231 2.631
-1.1148735 0.045624278 2.631
-1.1072547 0.045624275 2.631
-1.0994272 0.045615125 2.6305001
-1.130111 0.053228326 2.631
-1.1250318 0.053228326 2.631
-1.117413 0.053228326 2.631
-1.1072547 0.053228326 2.631
-1.130111 0.078575149 2.631
-1.1326506 0.086179197 2.631
-1.1250318 0.086179197 2.631
-1.117413 0.088713877 2.631
-1.130111 0.098852605 2.631
-1.1250318 0.096317917 2.631
-1.1173072 0.096308522 2.6307502
-1.1068339 0.098815031 2.6300001
-1.1246043 0.10388247 2.6300001
