# .PCD v0.7 - Point Cloud Data file format
VERSION 0.7
FIELDS x y z
SIZE 4 4 4
TYPE F F F
COUNT 1 1 1
WIDTH 161
HEIGHT 1
VIEWPOINT 0 0 0 1 0 0 0
POINTS 161
DATA ascii
1.3269643 0.10738439 2.477
1.3227162 0.11458959 2.4779999
1.304126 0.1263473 2.4744999
1.3275 0.12413873 2.4779999
1.3275 0.13368785 2.4779999
1.3179233 0.14535983 2.4735
1.3078369 0.15511079 2.477
1.3126187 0.15511078 2.477
1.3126187 0.16704239 2.477
1.3221824 0.17897399 2.477
1.3269643 0.18374662 2.477
1.2180724 0.095915228 2.4890001
1.2558804 0.098076113 2.483
1.2183646 0.10619044 2.4863334
1.2268732 0.10762283 2.4825001
1.2358627 0.10482371 2.4842
1.2558804 0.10525241 2.483
1.2654672 0.10525241 2.483
1.2750541 0.10525241 2.483
1.283842 0.10604978 2.483
1.2944695 0.10613263 2.4849999
1.3038146 0.10525241 2.483
1.3134016 0.10525241 2.483
1.3242126 0.10475703 2.4826
1.2135648 0.11417823 2.4863334
1.2290213 0.11238343 2.4820001
1.2362086 0.11238343 2.4820001
1.2565109 0.11400834 2.4826667
1.2654672 0.11482081 2.483
1.2750541 0.11482081 2.483
1.2845113 0.11480901 2.4827502
1.2940978 0.11480901 2.4827502
1.3038146 0.11482081 2.483
1.3134016 0.11482081 2.483
1.3205917 0.11482081 2.483
1.2367066 0.12438921 2.483
1.2462934 0.12678131 2.483
1.2558804 0.12438921 2.483
1.2654672 0.12438922 2.483
1.2750541 0.12438921 2.483
1.2822442 0.12438922 2.483
1.2966245 0.12438922 2.483
1.3028404 0.12357547 2.4826667
1.3140244 0.12357547 2.4826667
1.3229884 0.12438922 2.483
1.2367066 0.13395761 2.483
1.2462934 0.13395761 2.483
1.2558804 0.13156551 2.483
1.2654672 0.13395761 2.483
1.2750541 0.13395761 2.483
1.2822442 0.13395761 2.483
1.2966245 0.13395761 2.483
1.3038146 0.13395761 2.483
1.3134016 0.13395761 2.483
1.3229885 0.13395761 2.483
1.2079768 0.14141811 2.4879999
1.2381979 0.14130443 2.4860001
1.2448949 0.14444092 2.4849999
1.2534837 0.14591812 2.483
1.2726574 0.14352602 2.483
1.2846409 0.14352602 2.483
1.2942278 0.14352602 2.483
1.3038146 0.14352602 2.483
1.3134016 0.14352602 2.483
1.3250287 0.14269011 2.4823334
1.3301786 0.14113392 2.483
1.2420975 0.15106648 2.4890001
1.2726574 0.15070231 2.483
1.2846409 0.15309441 2.483
1.2942278 0.15309441 2.483
1.3038146 0.15309441 2.483
1.3110049 0.15070231 2.483
1.2858393 0.16385886 2.483
1.2942278 0.16505492 2.483
1.3038146 0.16505492 2.483
1.3110049 0.16505492 2.483
1.2966245 0.17462331 2.483
1.3038146 0.17462331 2.483
1.3110049 0.17701542 2.483
1.3200599 0.17933527 2.4820001
1.3242126 0.18703219 2.4826
1.3253852 0.19376011 2.483
1.3301786 0.19376011 2.483
1.1549633 0.09866859 2.4979999
1.1646081 0.093855485 2.4979999
1.174723 0.098708093 2.4990001
1.2253339 0.0961079 2.494
1.2376144 0.096131504 2.4945002
1.1554257 0.10593064 2.4990001
1.1786033 0.10344027 2.497
1.2248427 0.10327457 2.493
1.2326149 0.10352313 2.4990001
1.2917027 0.10323314 2.4920001
1.3013244 0.10323314 2.4920001
1.1549633 0.1131079 2.4979999
1.1646081 0.11792099 2.4979999
1.1834238 0.11546821 2.497
1.1554257 0.12278324 2.4990001
1.1646081 0.12514065 2.4979999
1.202224 0.12744509 2.4960001
1.1549633 0.1371734 2.4979999
1.1646081 0.13236031 2.4979999
1.1834238 0.13230732 2.497
1.2580271 0.13684393 2.4920001
1.262331 0.13678901 2.4909999
1.1554257 0.14445087 2.4990001
1.2349633 0.14175916 2.494
1.2474035 0.14632948 2.49
1.2537191 0.14170231 2.493
1.1554257 0.15167342 2.4990001
1.1602501 0.15648845 2.4990001
1.1786033 0.15155202 2.497
1.1834238 0.1563632 2.497
1.2349633 0.15136994 2.494
1.2489064 0.15130925 2.493
1.1631274 0.098747589 2.5
1.1719755 0.095536292 2.5
1.1800193 0.096339114 2.5
1.1979864 0.096425578 2.50225
1.2041506 0.096339114 2.5
1.2186294 0.096339114 2.5
1.2347169 0.095536292 2.5
1.1631274 0.10597303 2.5
1.1719755 0.10677585 2.5
1.1832367 0.10677585 2.5
1.1960363 0.10554259 2.5012
1.2046322 0.10360597 2.5009999
1.2162162 0.10597303 2.5
1.1631274 0.11319846 2.5
1.1703668 0.11560694 2.5
1.1896719 0.11560694 2.5
1.1969112 0.11560693 2.5
1.2065637 0.11560693 2.5
1.2138031 0.11560694 2.5
1.1719755 0.12443803 2.5
1.1848456 0.12524085 2.5
1.1961068 0.12443803 2.5
1.207368 0.12443803 2.5
1.2162162 0.12283237 2.5
1.1631274 0.13728324 2.5
1.1719755 0.13567759 2.5
1.1848456 0.13728324 2.5
1.1969112 0.13728324 2.5
1.2065637 0.13728324 2.5
1.1607143 0.14450867 2.5
1.1734822 0.14459538 2.5015001
1.1848456 0.14450867 2.5
1.1969112 0.14450867 2.5
1.2057594 0.14370584 2.5
1.2162162 0.14691715 2.5
1.2258687 0.14691715 2.5
1.2355213 0.14691715 2.5
1.2427607 0.14691715 2.5
1.2620656 0.1421002 2.5
1.1640872 0.15335999 2.5003333
1.1703668 0.1517341 2.5
1.1880631 0.15333976 2.5
1.1961068 0.15333976 2.5
1.2171873 0.15426542 2.5020001
1.2427607 0.1517341 2.5
1.2138031 0.16136801 2.5
