# .PCD v0.7 - Point Cloud Data file format
VERSION 0.7
FIELDS x y z
SIZE 4 4 4
TYPE F F F
COUNT 1 1 1
WIDTH 120
HEIGHT 1
VIEWPOINT 0 0 0 1 0 0 0
POINTS 120
DATA ascii
-0.0033754825 -0.65408897 2.0976667
0.0033735519 -0.65388149 2.0969999
0.012144787 -0.65253466 2.0969999
0.026338803 -0.65315706 2.099
-0.0040511582 -0.64476109 2.098
0.0040482623 -0.6444537 2.0969999
0.014168916 -0.64445376 2.0969999
0.024289576 -0.6444537 2.0969999
-0.0040518823 -0.63473046 2.0982499
0.0040482623 -0.63435256 2.0969999
0.014168917 -0.63435256 2.0969999
0.024289574 -0.63435256 2.0969999
-0.0020241311 -0.62829185 2.0969999
0.0050632237 -0.62555778 2.098
0.014170004 -0.62479341 2.0971251
0.024289574 -0.62627161 2.0969999
0.032386098 -0.62627161 2.0969999
0.006078185 -0.61675817 2.099
0.010120655 -0.61617047 2.0969999
-0.011541183 -0.65386957 2.1099999
0.018260619 -0.65409058 2.102
0.02232915 -0.65440172 2.1029999
0.034609072 -0.65423697 2.109
0.042770267 -0.65454715 2.1099999
-0.012218951 -0.64433283 2.109833
0.035121862 -0.64466184 2.1092501
0.044399608 -0.6435703 2.1099999
-0.01559202 -0.63544375 2.1073332
0.033513274 -0.63553351 2.1042502
0.044718869 -0.63294244 2.1057498
0.052274775 -0.63489723 2.1099999
-0.0033857785 -0.62722254 2.1070001
0.0020337838 -0.62519556 2.1069999
0.014202703 -0.6216898 2.102
0.024379827 -0.62242919 2.1045001
0.038596042 -0.62850916 2.1045001
0.044806946 -0.62812138 2.1099999
-0.0020366795 -0.61999035 2.1099999
0.004745495 -0.61524373 2.1076667
0.013423937 -0.61591828 2.1072001
0.022382239 -0.61940271 2.108
0.0061100381 -0.60576105 2.1099999
0.010183397 -0.60779381 2.1099999
0.047043435 -0.6552977 2.119
0.046932433 -0.64967823 2.1140001
0.052431464 -0.64360088 2.1163332
-0.010207529 -0.6377601 2.115
0.057205118 -0.63617581 2.1164999
-0.0061201737 -0.62712669 2.1135001
0.026527029 -0.62116575 2.1140001
0.034700774 -0.62543613 2.1146667
0.042871621 -0.62553471 2.115
0.051013514 -0.62931216 2.1140001
-0.0020405406 -0.61709249 2.1140001
0.0020381273 -0.61432803 2.1115
0.016324325 -0.61505592 2.1140001
0.022488417 -0.61826015 2.118
0.0020376449 -0.60808188 2.1110001
0.010197876 -0.60458666 2.1129999
-0.0061650579 -0.66659439 2.1289999
0.053317085 -0.65290511 2.1245
-0.018495174 -0.64198166 2.1289999
0.058042791 -0.6467877 2.1223333
0.063585907 -0.64282465 2.125
-0.010236487 -0.63548267 2.1210001
0.058062743 -0.63335359 2.1230001
0.063645758 -0.6372804 2.1270001
0.026677605 -0.62059534 2.1259999
0.034904439 -0.62498552 2.1270001
0.045822073 -0.625956 2.1256666
0.054395754 -0.62791091 2.1265001
-0.0020492277 -0.61562908 2.1229999
0.016405888 -0.61401784 2.1245
0.0020550191 -0.60916471 2.1289999
-0.014445946 -0.66529286 2.138
-0.018573359 -0.65293449 2.138
0.067879342 -0.6425848 2.131
0.066353276 -0.63467973 2.1348
-0.0061824322 -0.6273362 2.135
0.026840733 -0.62026876 2.1389999
0.032998554 -0.62366045 2.1364999
0.045369208 -0.62366039 2.1364999
0.055667952 -0.62557077 2.1359999
0.063915059 -0.62763005 2.1359999
-0.0020637065 -0.61585933 2.138
0.016485039 -0.61279726 2.1345
0.022658302 -0.61881888 2.1340001
0.072297297 -0.64117539 2.1400001
0.068325289 -0.63027453 2.145
0.072432436 -0.63824278 2.1440001
0.036218628 -0.62274957 2.1440001
0.045464285 -0.62084877 2.141
0.055833656 -0.62261051 2.1423333
0.064220317 -0.62443614 2.14625
0.018651545 -0.61431503 2.1470001
0.024831565 -0.61744368 2.1435001
0.031114863 -0.61902791 2.1489999
0.045635134 -0.61902791 2.1489999
0.051858105 -0.61902791 2.1489999
-0.010376449 -0.64002895 2.1500001
0.07685715 -0.64269656 2.152
0.074156366 -0.63568336 2.154
0.065502658 -0.62157679 2.1542501
0.072922297 -0.62800241 2.1585
0.018738417 -0.61302024 2.1570001
0.024932915 -0.61588871 2.1525002
0.036359556 -0.61796099 2.1524999
0.045720078 -0.61603183 2.1530001
0.054019786 -0.61796194 2.1525002
0.077214286 -0.63318694 2.1619999
0.025078185 -0.61529386 2.165
0.035517856 -0.61619222 2.1645
0.045952223 -0.61292344 2.164
0.05431081 -0.61396527 2.1639998
0.064771555 -0.61728221 2.1646667
0.054370172 -0.60737139 2.1665001
0.063745409 -0.60597664 2.1652501
0.018903475 -0.61422741 2.1760001
0.025234073 -0.61493301 2.1784999
0.035694983 -0.61403918 2.1753333
