# .PCD v0.7 - Point Cloud Data file format
VERSION 0.7
FIELDS x y z
SIZE 4 4 4
TYPE F F F
COUNT 1 1 1
WIDTH 106
HEIGHT 1
VIEWPOINT 0 0 0 1 0 0 0
POINTS 106
DATA ascii
0.017986486 0.18115029 1.694
0.016422136 0.17537765 1.7013334
0.0065815635 0.18895231 1.7055
0.014777993 0.18612827 1.701143
0.023366602 0.18687956 1.7046
0.0049292147 0.19206937 1.704
0.014863899 0.16978131 1.711
0.0060804375 0.17488955 1.7180001
0.012904441 0.17397323 1.7134001
0.022362454 0.17605829 1.716
-0.011608109 0.18702698 1.7180001
-0.0016583012 0.18537188 1.7180001
0.0046355212 0.18402889 1.7148001
0.011554054 0.18286127 1.71
0.026491635 0.18342648 1.7153333
0.033381965 0.1854817 1.7168572
0.044800192 0.18713583 1.719
-0.011581082 0.19154143 1.714
-0.004420849 0.19294542 1.7166668
0.036482625 0.1903372 1.7180001
0.0066679539 0.16804142 1.727
0.011668919 0.16804142 1.727
-0.0041672299 0.17550266 1.7267501
0.002777027 0.17241137 1.7263333
0.026664574 0.17797254 1.7265
0.033339769 0.17802408 1.727
0.046675675 0.17802408 1.727
0.051646717 0.177921 1.726
-0.01166554 0.18296194 1.7265
-0.0059511852 0.18412718 1.7262858
0.037215248 0.18239017 1.7263333
0.044985637 0.18416968 1.7261249
0.051646717 0.18290943 1.726
-0.025659267 0.19390693 1.7261999
-0.0061087515 0.19565767 1.726
0.043316603 0.19288632 1.726
-0.0016747104 0.16547687 1.735
0.002791184 0.16659118 1.735
0.015072394 0.16881984 1.735
-0.011722973 0.17717727 1.735
-0.0050241314 0.17550579 1.735
0.028470077 0.17550579 1.735
0.036006272 0.17634153 1.735
0.04437983 0.17634153 1.735
-0.0318195 0.18720618 1.735
-0.025539337 0.18595256 1.7349999
-0.016188869 0.18776333 1.735
-0.0318195 0.19222061 1.735
-0.021771235 0.19389209 1.735
-0.016028406 0.19602478 1.734857
-0.0057227798 0.16831252 1.7436001
-0.021871623 0.17967342 1.743
-0.015148407 0.17723049 1.74375
-0.0084121628 0.17295665 1.743
0.021871623 0.17295665 1.743
0.033667952 0.17305587 1.744
-0.021871623 0.1830318 1.743
-0.017385136 0.18415125 1.743
-0.011831081 0.1670029 1.751
-0.0067842668 0.16423652 1.7574999
0.0084555987 0.16709827 1.752
-0.015220077 0.1738497 1.752
0.027057914 0.1738497 1.752
0.037214771 0.1722105 1.7525001
0.045660231 0.1738497 1.752
-0.022185327 0.16862428 1.768
-0.017065637 0.16862428 1.768
-0.0017065638 0.16521773 1.768
0.0050994209 0.16475049 1.763
0.013598456 0.16795665 1.761
-0.018697876 0.17474277 1.761
0.018697876 0.17134972 1.761
0.025497103 0.17134972 1.761
0.035695948 0.17134972 1.761
0.018888997 0.16967341 1.779
0.025720077 0.16938728 1.776
0.03434363 0.16967341 1.779
0.017258687 0.16708671 1.788
0.022436293 0.16708671 1.788
0.012128378 0.16774084 1.795
0.027752897 0.16792776 1.7970001
0.036439832 0.16799004 1.7976667
0.039894789 0.17139018 1.7970001
0.019165058 0.16519749 1.8049999
0.02615058 0.16528901 1.806
0.033139963 0.16538054 1.807
0.015741313 0.16583815 1.812
0.026264479 0.1660212 1.814
0.033451736 0.16342196 1.824
0.044063706 0.16711946 1.826
0.02649614 0.16043353 1.83
0.033618081 0.16305234 1.8330001
0.040738419 0.16794316 1.835
0.048318531 0.15182081 1.854
0.054582044 0.15450001 1.854
0.037570946 0.16427889 1.8535
0.04545521 0.16468093 1.8539999
0.051897682 0.16253757 1.854
0.048500963 0.14880829 1.8609999
0.052093629 0.14880829 1.8609999
0.037763514 0.15794122 1.8629999
0.044527635 0.15666968 1.8638752
0.052163608 0.15798506 1.8635
0.041360039 0.16332659 1.863
0.045125484 0.14952794 1.87
0.04169305 0.15016763 1.878
