# .PCD v0.7 - Point Cloud Data file format
VERSION 0.7
FIELDS x y z
SIZE 4 4 4
TYPE F F F
COUNT 1 1 1
WIDTH 171
HEIGHT 1
VIEWPOINT 0 0 0 1 0 0 0
POINTS 171
DATA ascii
0.65363371 0.34704769 1.9685
0.65556729 0.35129696 1.9657501
0.6648649 0.35643929 1.9680001
0.6648649 0.36591908 1.9680001
0.6705637 0.36591911 1.9680001
0.65612668 0.3750197 1.9680001
0.6648649 0.37539887 1.9680001
0.64396912 0.38108671 1.9680001
0.67436296 0.38487864 1.9680001
0.67436296 0.3943584 1.9680001
0.64495075 0.33989304 1.971
0.63701737 0.37767825 1.97
0.65256077 0.37786993 1.971
0.62491882 0.38435301 1.9764286
0.63571405 0.38480443 1.9754
0.64448744 0.38386032 1.9725001
0.62464571 0.39465609 1.9789999
0.62464571 0.40609536 1.9789999
0.61455238 0.41526228 1.97725
0.62464571 0.41562811 1.979
0.60554343 0.42516086 1.9789999
0.6150946 0.42516088 1.979
0.62464571 0.42516086 1.9789999
0.60554343 0.4346936 1.979
0.61509454 0.43469363 1.979
0.62464571 0.43469366 1.979
0.63610715 0.43469366 1.979
0.60602105 0.44374973 1.979
0.6150946 0.44422641 1.979
0.62464571 0.44422638 1.9789999
0.63610715 0.44422638 1.9789999
0.60663503 0.4562104 1.979
0.6150946 0.45566571 1.979
0.62464571 0.45566571 1.9789999
0.63610709 0.45566571 1.9789999
0.60630751 0.46481714 1.9789999
0.61509454 0.46519846 1.979
0.62464571 0.46519843 1.979
0.63610715 0.46519843 1.979
0.64565825 0.46519846 1.979
0.60681695 0.47218916 1.979
0.61509454 0.47091812 1.979
0.62573731 0.47418645 1.979
0.63610715 0.47473124 1.9789999
0.64565825 0.47473121 1.979
0.60554343 0.48235741 1.979
0.61318433 0.48235741 1.979
0.62655598 0.4861705 1.979
0.63610715 0.48617056 1.9789999
0.64565825 0.4861705 1.979
0.62540984 0.4960846 1.9789999
0.63610721 0.49570331 1.979
0.64565825 0.49570328 1.979
0.60202706 0.44826591 1.98
0.59463418 0.46355397 1.9834
0.59498262 0.47163197 1.982
0.60324329 0.47592679 1.9840001
0.61462969 0.47585067 1.9836665
0.59880888 0.48690751 1.982
0.61762834 0.48284489 1.9809999
0.59243178 0.49454531 1.982
0.63260621 0.50167632 1.98
0.56472969 0.49462429 1.99
0.57049227 0.49654144 1.99
0.59738415 0.49654144 1.99
0.56472975 0.50421 1.9899999
0.57385373 0.50468928 1.9899999
0.58585906 0.50612712 1.9899999
0.59584749 0.50497687 1.99
0.56472975 0.51571292 1.9899999
0.57433397 0.51571292 1.99
0.58585906 0.51571292 1.99
0.59546334 0.51571292 1.9899999
0.60506755 0.51571298 1.99
0.56472969 0.52529866 1.99
0.57433397 0.52529866 1.9899999
0.58509076 0.52491522 1.99
0.59496582 0.52626491 1.9922001
0.56472969 0.53488439 1.9899999
0.57433391 0.53488445 1.99
0.58585906 0.53488445 1.99
0.59546334 0.53488439 1.9899999
0.60427457 0.53570151 1.9909999
0.56551087 0.5452252 1.9927499
0.57379651 0.5443064 1.9907999
0.58505195 0.54501861 1.9909999
0.59546328 0.54447013 1.99
0.60521859 0.54460746 1.9905
0.56023121 0.55338776 1.9944999
0.5729903 0.5546127 1.992
0.5848847 0.55411088 1.9914544
0.59546334 0.55405587 1.9899999
0.60510111 0.55408657 1.990111
0.61467183 0.55405587 1.9899999
0.55253041 0.56491667 1.9944999
0.5689286 0.56398267 1.998
0.5729903 0.562289 1.992
0.58428079 0.564731 1.9924999
0.5948531 0.56576174 1.9907142
0.60506755 0.56555879 1.99
0.61467183 0.56555885 1.9899999
0.54523939 0.57880157 1.9960001
0.55266893 0.57082373 1.995
0.57784414 0.57865655 1.9955
0.58507431 0.57483238 1.9922498
0.59546328 0.57514453 1.99
0.60506755 0.57514453 1.9899999
0.61467183 0.57514453 1.99
0.54290491 0.58413053 1.9944999
0.57784414 0.58634633 1.9955
0.58565819 0.58410525 1.9907777
0.59546334 0.58473027 1.9899999
0.60506755 0.58473027 1.99
0.61467183 0.58473033 1.9899999
0.58561897 0.59218568 1.9957501
0.59598529 0.59484029 1.99175
0.60527027 0.59451574 1.9906665
0.62427598 0.59431595 1.9899999
0.60293788 0.60561752 1.9956666
0.54505467 0.62858766 1.9953333
0.55322295 0.62911272 1.997
0.54771429 0.63327748 1.998
0.55833352 0.5668993 2.0015001
0.54633206 0.57610792 2
0.55536753 0.57550365 2.00125
0.52535903 0.58796239 2.0009999
0.53281856 0.5876686 2
0.54633206 0.5876686 2
0.55460811 0.58439893 2.0020001
0.56427026 0.58439881 2.0020001
0.52568752 0.59411681 2.0022502
0.53528315 0.59404272 2.0020001
0.54487813 0.59396845 2.00175
0.55509126 0.59548897 2.0020001
0.56427026 0.59597111 2.0020001
0.51428282 0.60591817 2.003
0.52224034 0.60499328 2.0063334
0.54686165 0.60251635 2.0066667
0.5544883 0.60526192 2.0035713
0.56427026 0.60561466 2.0020001
0.50975287 0.61710209 2.0079999
0.51454055 0.6158728 2.0039999
0.52293193 0.61664116 2.0065
0.55543727 0.61507529 2.0049999
0.54576254 0.62776977 2.0050001
0.55540484 0.62434864 2.0048749
0.51524544 0.63798386 2.0067501
0.53968722 0.63904047 2.0039999
0.54326773 0.63652039 2.0057998
0.55723697 0.63340509 2.0044999
0.51511133 0.6469897 2.003
0.51518649 0.65537536 2.0020001
0.52531797 0.6550383 2.0039999
0.53536958 0.65500689 2.0041251
0.49288642 0.56563169 2.013
0.49460211 0.58516663 2.0125999
0.50300002 0.58344126 2.0120001
0.48641023 0.5966599 2.013
0.49328956 0.59506935 2.0120001
0.50663221 0.59090072 2.0109999
0.48576254 0.60506356 2.013
0.49465099 0.60539114 2.0128
0.50274998 0.60639977 2.0109999
0.48576251 0.6147601 2.0130002
0.4954778 0.6147601 2.0130002
0.50515103 0.61470956 2.0128336
0.51361704 0.6134097 2.01175
0.48576254 0.62445664 2.013
0.49547777 0.62445664 2.0130002
0.51431018 0.62179583 2.0106668
0.48576254 0.63027459 2.013
