# .PCD v0.7 - Point Cloud Data file format
VERSION 0.7
FIELDS x y z
SIZE 4 4 4
TYPE F F F
COUNT 1 1 1
WIDTH 119
HEIGHT 1
VIEWPOINT 0 0 0 1 0 0 0
POINTS 119
DATA ascii
-0.33310762 -0.075782761 2.5374999
-0.33533931 -0.081212431 2.5545001
-0.35266894 -0.073843934 2.5550001
-0.34523675 -0.073836461 2.5547502
-0.33540541 -0.07138247 2.5550001
-0.32554054 -0.073843934 2.5550001
-0.31826642 -0.073872834 2.556
-0.35280696 -0.064022154 2.556
-0.3454054 -0.066485547 2.556
-0.33635905 -0.06484329 2.556
-0.32573116 -0.066498548 2.5565
-0.34038416 -0.091751441 2.5739999
-0.33554536 -0.091787092 2.575
-0.41540444 -0.086893059 2.5769999
-0.4001689 -0.084343925 2.5749998
-0.39535135 -0.086859345 2.576
-0.36026061 -0.081832364 2.5739999
-0.35273841 -0.084296241 2.5734999
-0.34356335 -0.085106291 2.573
-0.33286631 -0.084296241 2.5734999
-0.32292902 -0.081816472 2.5734999
-0.31056949 -0.081832364 2.5739999
-0.38540539 -0.076932564 2.576
-0.37268338 -0.074393064 2.5739999
-0.36522973 -0.074393064 2.5739999
-0.3599807 -0.074335262 2.572
-0.31308421 -0.074400045 2.57425
-0.30571911 -0.076902702 2.575
-0.37195107 -0.06531664 2.5746665
-0.36267519 -0.064461946 2.5734999
-0.35515153 -0.064447977 2.573
-0.34521911 -0.061970133 2.573
-0.33299565 -0.062006261 2.5745001
-0.32075676 -0.067005783 2.576
-0.34104538 -0.057145473 2.579
-0.42298937 -0.092428707 2.5929999
-0.41532046 -0.092393063 2.592
-0.40447879 -0.094058447 2.592
-0.39811391 -0.094964355 2.5939999
-0.33339864 -0.092571288 2.5969999
-0.42315254 -0.087466285 2.5940001
-0.4147532 -0.084122993 2.5936668
-0.407736 -0.084884875 2.5915
-0.39462319 -0.084101796 2.5929999
-0.38544548 -0.084934965 2.5929999
-0.3745521 -0.084091194 2.5926666
-0.36597523 -0.085701674 2.5909998
-0.33275676 -0.087398842 2.592
-0.3176226 -0.082372837 2.5910001
-0.30785617 -0.082436413 2.5929999
-0.40312162 -0.074970134 2.5939999
-0.39542013 -0.074934244 2.5927501
-0.38461164 -0.074109502 2.5929999
-0.30459684 -0.074128129 2.5936666
-0.38552076 -0.067460984 2.5935001
-0.36778378 -0.062427744 2.592
-0.32813224 -0.0625 2.595
-0.31548649 -0.067473993 2.5940001
-0.34790251 -0.057455681 2.5929999
-0.33314189 -0.057500001 2.595
-0.41048938 -0.098026007 2.609
-0.38026929 -0.08797206 2.609
-0.42340541 -0.098101161 2.6110001
-0.41584459 -0.098101161 2.6110001
-0.39415383 -0.094784848 2.6120002
-0.38315398 -0.09308815 2.6115
-0.37403187 -0.094797373 2.6123333
-0.36291891 -0.093070328 2.6110001
-0.43113127 -0.085554913 2.612
-0.42592567 -0.083008669 2.6110001
-0.33002895 -0.088005774 2.6099999
-0.32511488 -0.088039503 2.6110001
-0.31503379 -0.088039503 2.6110001
-0.30260473 -0.08305636 2.6125002
-0.42136875 -0.078067437 2.6140001
-0.41264284 -0.076329477 2.6119998
-0.30025676 -0.078067437 2.6140001
-0.39598551 -0.067968205 2.6129999
-0.38337645 -0.062933527 2.6129999
-0.32548842 -0.062957615 2.6140001
-0.31011197 -0.067942195 2.612
-0.30541989 -0.068020232 2.615
-0.36347491 -0.057943162 2.615
-0.3560386 -0.057965316 2.6159999
-0.34049711 -0.057898842 2.6129999
-0.43360716 -0.096173406 2.6269999
-0.38318434 -0.098777458 2.6289999
-0.35500193 -0.093640655 2.6269999
-0.43901253 -0.088646434 2.6289999
-0.32228088 -0.088646434 2.6289999
-0.40918243 -0.10400096 2.6329999
-0.43934652 -0.093783237 2.631
-0.39348456 -0.098815031 2.6300001
-0.38840735 -0.098815031 2.6300001
-0.43917957 -0.083612718 2.6300001
-0.31224903 -0.088680156 2.6300001
-0.30740541 -0.088747591 2.632
-0.42902511 -0.07854528 2.6300001
-0.41918918 -0.073533721 2.632
-0.30255407 -0.073589601 2.6340001
-0.4067196 -0.068501443 2.6335001
-0.39408302 -0.06343931 2.6340001
-0.31514668 -0.063415222 2.6329999
-0.33319014 -0.058386318 2.635
-0.32847685 -0.058452792 2.638
-0.41646817 -0.10455395 2.6470001
-0.33009556 -0.094496146 2.651
-0.31986004 -0.094496146 2.651
-0.29961488 -0.079232179 2.6530001
-0.32510039 -0.063872829 2.652
-0.30985811 -0.063896917 2.6530001
-0.33736295 -0.095102116 2.668
-0.32718435 -0.09513776 2.6689999
-0.31442085 -0.095173411 2.6700001
-0.30680406 -0.092636801 2.671
-0.30176061 -0.084947973 2.6719999
-0.30176061 -0.074651249 2.6719999
-0.2966578 -0.077239409 2.6725001
-0.30527544 -0.067803472 2.6726668
