# .PCD v0.7 - Point Cloud Data file format
VERSION 0.7
FIELDS x y z
SIZE 4 4 4
TYPE F F F
COUNT 1 1 1
WIDTH 282
HEIGHT 1
VIEWPOINT 0 0 0 1 0 0 0
POINTS 282
DATA ascii
-0.64194012 -0.92143542 2.3499999
-0.63740343 -0.92369938 2.3499999
-0.62379342 -0.92143542 2.3499999
-0.61472005 -0.92143542 2.3499999
-0.60337836 -0.92143542 2.3499999
-0.59430504 -0.92143542 2.3499999
-0.5784266 -0.92143542 2.3499999
-0.73494208 -0.91237956 2.3499999
-0.72813702 -0.91237956 2.3499999
-0.6646235 -0.91237956 2.3499999
-0.65101349 -0.91464353 2.3499999
-0.64345235 -0.91539818 2.3499999
-0.6358912 -0.91388887 2.3499999
-0.62379342 -0.91464353 2.3499999
-0.61472005 -0.91464347 2.3500001
-0.60337836 -0.91464353 2.3499999
-0.59430504 -0.91464353 2.3499999
-0.58598775 -0.91388887 2.3499999
-0.5784266 -0.91464353 2.3499999
-0.55271882 -0.91388887 2.3499999
-0.54440153 -0.91237956 2.3499999
-0.53457206 -0.91388887 2.3499999
-0.73494208 -0.90558767 2.3499999
-0.72662479 -0.90634227 2.3499999
-0.67823356 -0.90785158 2.3499999
-0.63740343 -0.90558761 2.3499999
-0.62379342 -0.90558761 2.3499999
-0.61698842 -0.90558767 2.3499999
-0.60337836 -0.90558767 2.3499999
-0.59430504 -0.90558767 2.3499999
-0.58523166 -0.90558761 2.3499999
-0.57615829 -0.90558767 2.3499999
-0.5534749 -0.90558767 2.3499999
-0.54440153 -0.90558767 2.3499999
-0.74401546 -0.8965317 2.3499999
-0.72813702 -0.89879572 2.3499999
-0.70091695 -0.8942678 2.3499999
-0.6358912 -0.89577705 2.3499999
-0.62379342 -0.89653176 2.3499999
-0.61472005 -0.89653176 2.3500001
-0.60337836 -0.8965317 2.3499999
-0.59430504 -0.8965317 2.3499999
-0.5852316 -0.8965317 2.3499999
-0.56027991 -0.89653176 2.3499999
-0.5534749 -0.89653176 2.3499999
-0.74628377 -0.88973987 2.3499999
-0.62379342 -0.88747585 2.3499999
-0.61415297 -0.88577795 2.3500001
-0.60337836 -0.88521194 2.3500001
-0.59430504 -0.88521188 2.3500001
-0.58568537 -0.88430631 2.3499999
-0.62379342 -0.87615603 2.3499999
-0.61472005 -0.87389207 2.3500001
-0.60337836 -0.87389207 2.3499999
-0.59430504 -0.87389207 2.3499999
-0.58523166 -0.87389207 2.3499999
-0.74174708 -0.86257219 2.3499999
-0.61245167 -0.86483622 2.3499999
-0.60337836 -0.86483622 2.3499999
-0.59430504 -0.86483622 2.3499999
-0.61018336 -0.85804427 2.3499999
-0.60337836 -0.85804427 2.3499999
-0.74174708 -0.84898841 2.3499999
-0.64667571 -0.92723703 2.359
-0.63242531 -0.92299813 2.3540001
-0.74427223 -0.91548556 2.358
-0.68509269 -0.91775626 2.358
-0.67427027 -0.91315609 2.352
-0.66064864 -0.91315609 2.352
-0.65267569 -0.91016954 2.3559999
-0.64757723 -0.91393262 2.3540001
-0.63313609 -0.91729772 2.3510001
-0.62939966 -0.91393262 2.3540001
-0.57511103 -0.91885841 2.355
-0.55597973 -0.91729772 2.3510001
-0.53782529 -0.91729772 2.3510001
-0.74484015 -0.90826875 2.355
-0.72210854 -0.90675759 2.3550003
-0.68744564 -0.90247363 2.3556664
-0.67704368 -0.90476322 2.35375
-0.66272521 -0.9078837 2.3540001
-0.64303285 -0.90939695 2.3540001
-0.63313609 -0.90597308 2.3510001
-0.61122203 -0.90939695 2.3540001
-0.74206275 -0.89011854 2.3510001
-0.73725122 -0.89682543 2.35375
-0.72937649 -0.89579004 2.3540001
-0.70181173 -0.8908757 2.3529999
-0.69499862 -0.89540708 2.3529999
-0.68678761 -0.89655101 2.3559999
-0.63518888 -0.89389563 2.3529999
-0.62913221 -0.89540941 2.3529999
-0.74559653 -0.88709539 2.355
-0.61952031 -0.88105881 2.3510001
-0.74300969 -0.87537962 2.3540001
-0.62432432 -0.87236995 2.352
-0.76161838 -0.86452919 2.3553333
-0.75252444 -0.86452919 2.3553333
-0.74300969 -0.86857617 2.3540001
-0.73650485 -0.86213779 2.355
-0.61978376 -0.86783814 2.352
-0.74237835 -0.85877454 2.352
-0.73584622 -0.85393643 2.3553333
-0.72483206 -0.85270143 2.3540001
-0.74206275 -0.84481984 2.3510001
-0.73909265 -0.84661657 2.3559999
-0.72679347 -0.8455385 2.3530002
-0.73828572 -0.93533814 2.368
-0.66486198 -0.93266189 2.3670001
-0.65309334 -0.93444872 2.3657501
-0.64389139 -0.93662858 2.3655
-0.63368177 -0.93464708 2.3643334
-0.74341363 -0.9217847 2.3625002
-0.7354154 -0.92376137 2.3636668
-0.72562742 -0.92236996 2.3639998
-0.71482426 -0.92315024 2.3659999
-0.70340538 -0.92315024 2.3659999
-0.69424909 -0.9251458 2.3633332
-0.68599391 -0.92480117 2.3663332
-0.67564213 -0.92494202 2.3647499
-0.66498703 -0.92518318 2.3642001
-0.65689766 -0.92425436 2.3629999
-0.7614643 -0.91975623 2.369
-0.75497395 -0.91515124 2.3629999
-0.74977702 -0.9166503 2.3610001
-0.7248615 -0.91684443 2.3615
-0.71482438 -0.91631216 2.3659999
-0.70340538 -0.9163121 2.3659999
-0.69390422 -0.91582924 2.3647499
-0.68683779 -0.91553855 2.3639998
-0.67300433 -0.91534346 2.3635001
-0.86345321 -0.90282613 2.3664999
-0.77529216 -0.90162492 2.3693333
-0.76049995 -0.90035641 2.3659999
-0.75481427 -0.90585411 2.3625002
-0.74977702 -0.90755206 2.3610001
-0.72624326 -0.90263581 2.3659999
-0.7161293 -0.90556639 2.3659999
-0.70531589 -0.90671653 2.3647499
-0.69765639 -0.90566087 2.362
-0.6846993 -0.9043386 2.3645
-0.86207819 -0.8969335 2.369
-0.84517908 -0.89142728 2.3664999
-0.77627188 -0.89490724 2.3676667
-0.76506758 -0.89351821 2.3659999
-0.75433499 -0.8961792 2.3610001
-0.7422297 -0.89123887 2.3659999
-0.73589551 -0.89495862 2.3662
-0.72670507 -0.89636558 2.3674998
-0.71482438 -0.89427805 2.3659999
-0.70630574 -0.8939935 2.3642499
-0.84307241 -0.88705498 2.3670001
-0.76506758 -0.88440078 2.3659999
-0.75439161 -0.88620979 2.3647499
-0.7450217 -0.88365364 2.3640001
-0.73592055 -0.88505512 2.3677499
-0.71254057 -0.88440073 2.3659999
-0.84728378 -0.87300384 2.3659999
-0.76547951 -0.8755908 2.36375
-0.75709319 -0.87398994 2.3625002
-0.74584657 -0.87417388 2.3630002
-0.73561072 -0.87555993 2.36675
-0.84764194 -0.8688122 2.3670001
-0.76800871 -0.8643353 2.3610001
-0.75596017 -0.86369878 2.3613334
-0.74977702 -0.86660987 2.3610001
-0.73440927 -0.8666808 2.3653333
-0.76517534 -0.85488856 2.3663332
-0.75479102 -0.85590756 2.3659999
-0.74584848 -0.85672158 2.3630002
-0.73562258 -0.8572033 2.3643334
-0.74844503 -0.847211 2.3640001
-0.75026935 -0.93202221 2.3770001
-0.74520993 -0.93372405 2.3755002
-0.86112452 -0.9236387 2.3789999
-0.78304923 -0.9236387 2.3789999
-0.76649183 -0.92534637 2.3775001
-0.7566762 -0.92685699 2.3755002
-0.86287498 -0.91618347 2.3775001
-0.85967666 -0.91750962 2.375
-0.79298717 -0.91510218 2.3766668
-0.78394473 -0.915124 2.3747499
-0.87379926 -0.90644896 2.3759999
-0.85895264 -0.90530634 2.3729999
-0.79402846 -0.9070245 2.3775001
-0.78642339 -0.9054355 2.3753335
-0.7666657 -0.90708762 2.3756669
-0.86921233 -0.89958382 2.3759999
-0.85521173 -0.89475465 2.3753333
-0.84714383 -0.89806938 2.372
-0.79407209 -0.89628071 2.3753333
-0.78631371 -0.89767861 2.375
-0.85050678 -0.88547689 2.375
-0.84532756 -0.88485605 2.3733332
-0.85509169 -0.8740356 2.375
-0.84503138 -0.87768644 2.3724999
-0.83446038 -0.87174857 2.375
-0.85014868 -0.86223316 2.3740001
-0.84979051 -0.86644214 2.3729999
-0.95808399 -0.9723295 2.3860002
-0.93814284 -0.97314453 2.388
-0.96689093 -0.96273124 2.385
-0.95549786 -0.96467954 2.3829999
-0.94827366 -0.96252942 2.3845
-0.93794644 -0.96604186 2.3874998
-0.95597935 -0.95566732 2.3826666
-0.94537741 -0.95733237 2.3830001
-0.93755358 -0.95643687 2.3864999
-0.84097975 -0.9405424 2.3870001
-0.83406758 -0.9405424 2.3870001
-0.80327272 -0.94644654 2.3845
-0.88743246 -0.93173409 2.388
-0.86862838 -0.93134397 2.3870001
-0.82185811 -0.93975431 2.385
-0.79553282 -0.93398267 2.382
-0.92295802 -0.92347932 2.3845
-0.91509265 -0.92250866 2.382
-0.90646571 -0.92308813 2.3834999
-0.88212454 -0.92519075 2.3829999
-0.87382919 -0.92493224 2.3823333
-0.86608112 -0.92402703 2.3800001
-0.85428935 -0.92335588 2.3829999
-0.84605789 -0.92252022 2.3840001
-0.83623779 -0.92282391 2.3840001
-0.8047297 -0.92480344 2.382
-0.92276448 -0.9163931 2.3840001
-0.91586101 -0.9163931 2.3840001
-0.90665638 -0.9163931 2.3840001
-0.88189816 -0.91467482 2.3855
-0.87140733 -0.91562426 2.382
-0.86608112 -0.91485554 2.3800001
-0.85531271 -0.91332948 2.382
-0.84682435 -0.91409481 2.3839998
-0.83744645 -0.91620088 2.3835001
-0.8211689 -0.91600865 2.3829999
-0.79716218 -0.91485554 2.3800001
-0.88171333 -0.90758669 2.385
-0.85560042 -0.90440917 2.3806667
-0.84570241 -0.90529579 2.3830001
-0.87140733 -0.89497113 2.382
-0.86450958 -0.89497113 2.382
-0.85761195 -0.89267629 2.382
-0.84310818 -0.89651257 2.3800001
-0.86450958 -0.8857919 2.382
-0.85725194 -0.88542104 2.381
-0.97658736 -0.97470665 2.3975
-0.9698475 -0.97721964 2.398
-0.95207787 -0.97486639 2.3959999
-0.94670075 -0.97490942 2.398
-0.93344373 -0.97472864 2.3956668
-0.92586869 -0.97490942 2.398
-0.9837355 -0.96566862 2.398
-0.97485834 -0.96490586 2.39325
-0.96762311 -0.96575582 2.3924999
-0.94393724 -0.96515322 2.391
-0.93394852 -0.96535939 2.3938
-0.92586869 -0.96566868 2.398
-0.96595621 -0.95639819 2.3959999
-0.95367587 -0.95461023 2.3945999
-0.94463128 -0.95512462 2.3966665
-0.9344433 -0.95572811 2.39625
-0.92664027 -0.95565766 2.398
-0.91661 -0.95411754 2.398
-0.909666 -0.95411754 2.398
-0.93512744 -0.94487667 2.398
-0.92586869 -0.94487667 2.398
-0.91661006 -0.94487667 2.398
-0.93281275 -0.93563586 2.398
-0.92432529 -0.93407512 2.3940001
-0.91469884 -0.93368495 2.3929999
-0.88236094 -0.93829572 2.3929999
-0.93388641 -0.9246971 2.3959999
-0.88817573 -0.9233045 2.3900001
-0.87894791 -0.91869944 2.3900001
-0.99070048 -0.97489697 2.4036667
-0.98410493 -0.97757745 2.4026668
-0.99166214 -0.96425241 2.4060001
-0.98387647 -0.96113682 2.404
-0.97536808 -0.95804626 2.404
-0.96390784 -0.95048702 2.4005001
-0.95543289 -0.95127892 2.4025002
-0.94596338 -0.95108092 2.402
