# .PCD v0.7 - Point Cloud Data file format
VERSION 0.7
FIELDS x y z
SIZE 4 4 4
TYPE F F F
COUNT 1 1 1
WIDTH 180
HEIGHT 1
VIEWPOINT 0 0 0 1 0 0 0
POINTS 180
DATA ascii
0.82254732 -0.94133818 2.4990001
0.83394015 -0.93577361 2.497
0.8456496 -0.93660069 2.4959998
0.84725738 -0.92577714 2.4960001
0.85517019 -0.90802217 2.4956665
0.86114192 -0.90763295 2.4990001
0.87938225 -0.90173411 2.4960001
0.88661003 -0.90173411 2.4960001
0.89624715 -0.90173411 2.4960001
0.88937545 -0.89728421 2.497
0.90238899 -0.89104337 2.493
0.90166503 -0.88552886 2.4909999
0.91347778 -0.88285065 2.497
0.90829343 -0.87768787 2.4960001
0.91483814 -0.87459892 2.4963334
0.94703138 -0.87545621 2.4965
0.89455408 -0.86876494 2.4980001
0.90447456 -0.86588597 2.4943333
0.91366065 -0.86618543 2.4974999
0.92127031 -0.86187673 2.4920001
0.93126547 -0.86222255 2.493
0.95089769 -0.86256838 2.494
0.90588176 -0.85604721 2.4959998
0.9158861 -0.85879481 2.497
0.92484742 -0.85570198 2.4973333
0.93436456 -0.85558796 2.497
0.94367564 -0.85295761 2.494
0.9505164 -0.85261559 2.493
0.89937639 -0.84469938 2.4979999
0.90495974 -0.84711784 2.4956667
0.95571232 -0.84815222 2.494
0.96437114 -0.84490323 2.4914999
0.97015637 -0.84815222 2.494
0.89937639 -0.83747971 2.4979999
0.94506228 -0.83269942 2.4945002
0.95456272 -0.83273309 2.4909999
0.96437407 -0.835302 2.4914999
0.89913636 -0.82522541 2.4973333
0.92868245 -0.82096243 2.4990001
0.94511545 -0.82412255 2.494
0.9645676 -0.82826591 2.4920001
0.91384357 -0.81100768 2.4979999
0.92435265 -0.81356388 2.4960001
0.94607526 -0.81691325 2.494
0.95937163 -0.81353468 2.4909999
0.96418047 -0.81353468 2.4909999
0.92367327 -0.80394846 2.4984999
0.96658492 -0.7991358 2.4909999
0.97659361 -0.78505009 2.4920001
0.78667951 -0.94412327 2.5
0.79391891 -0.94171482 2.5
0.81259513 -0.94378662 2.5055001
0.82066792 -0.94472826 2.5079999
0.79552764 -0.93368655 2.5
0.80517876 -0.93572062 2.5019999
0.81596333 -0.93486416 2.5009999
0.82448524 -0.93368655 2.5
0.8349421 -0.93208092 2.5
0.8445946 -0.93208092 2.5
0.80598456 -0.92485553 2.5
0.81563705 -0.92485547 2.5
0.82528961 -0.92485547 2.5
0.83494204 -0.92485547 2.5
0.84218144 -0.92485547 2.5
0.81563705 -0.91522157 2.5
0.82528961 -0.91522163 2.5
0.8349421 -0.91522157 2.5
0.81563705 -0.90558767 2.5
0.82528961 -0.90558767 2.5
0.8349421 -0.90558767 2.5
0.8445946 -0.90558767 2.5
0.85424709 -0.90317917 2.5
0.86148649 -0.90317917 2.5
0.82528961 -0.89595377 2.5
0.8349421 -0.89595377 2.5
0.8445946 -0.89595377 2.5
0.85424715 -0.89595377 2.5
0.86148649 -0.89595377 2.5
0.88561773 -0.89836222 2.5
0.90009654 -0.89595377 2.5
0.8349421 -0.88631988 2.5
0.8445946 -0.88631988 2.5
0.85424709 -0.88631982 2.5
0.8445946 -0.87668598 2.5
0.85424715 -0.87668592 2.5
0.90974903 -0.87427747 2.5
0.8257286 -0.8665719 2.5028
0.8445946 -0.86705208 2.5
0.85424709 -0.86705208 2.5
0.86148649 -0.86464357 2.5
0.89285719 -0.86464357 2.5
0.90009654 -0.86464357 2.5
0.85424715 -0.85500956 2.5
0.86389971 -0.85500962 2.5
0.87306947 -0.85404623 2.5
0.88320458 -0.85260117 2.5
0.89285725 -0.85500962 2.5
0.9000966 -0.85500956 2.5
0.91698843 -0.85260117 2.5
0.92664093 -0.85019267 2.5
0.93629348 -0.85019267 2.5
0.94594598 -0.85019267 2.5
0.95318532 -0.85019267 2.5
0.86389959 -0.84296727 2.5
0.87274772 -0.84377009 2.5
0.88320458 -0.84537572 2.5
0.89285719 -0.84296721 2.5
0.90974903 -0.84296727 2.5
0.91698837 -0.84296721 2.5
0.92664093 -0.84296721 2.5
0.93629348 -0.84296727 2.5
0.94594598 -0.84296727 2.5
0.95559847 -0.84296727 2.5
0.96283782 -0.84296727 2.5
0.87274772 -0.8325305 2.5
0.89285719 -0.83333331 2.5
0.90974903 -0.83333337 2.5
0.91698843 -0.83333337 2.5
0.92664093 -0.83333331 2.5
0.93629348 -0.83333337 2.5
0.96283782 -0.83333337 2.5
0.89285719 -0.82369947 2.5
0.90974903 -0.82610792 2.5
0.91698843 -0.82369947 2.5
0.92583656 -0.82450229 2.5
0.93709785 -0.82450229 2.5
0.96525097 -0.82369947 2.5
0.89285719 -0.81406546 2.5
0.90009654 -0.81165701 2.5
0.91698837 -0.81647396 2.5
0.93870658 -0.81647396 2.5
0.89285719 -0.80443162 2.5
0.90492278 -0.8044315 2.5
0.91698843 -0.80443162 2.5
0.90009654 -0.79479766 2.5
0.93629348 -0.79720616 2.5
0.94594598 -0.79238921 2.5
0.95559847 -0.79238921 2.5
0.96605533 -0.7939949 2.5
0.97249037 -0.79479766 2.5
0.93870658 -0.78275532 2.5
0.94594598 -0.78516382 2.5
0.95559847 -0.78516376 2.5
0.96525097 -0.78516382 2.5
0.97287929 -0.78547782 2.5009999
0.98214287 -0.78516376 2.5
0.91940153 -0.77312142 2.5
0.92664093 -0.77312142 2.5
0.93709785 -0.77472705 2.5
0.94594598 -0.77552986 2.5
0.95559847 -0.77552986 2.5
0.96525091 -0.77552986 2.5
0.97249037 -0.77552986 2.5
0.92664093 -0.76589596 2.5
0.93629348 -0.76589596 2.5
0.94594598 -0.76589596 2.5
0.95559847 -0.7658959 2.5
0.96525091 -0.7658959 2.5
0.97249037 -0.76589596 2.5
0.92664093 -0.75626206 2.5
0.93629348 -0.75626206 2.5
0.94594598 -0.75626206 2.5
0.95559847 -0.75626206 2.5
0.96525097 -0.75626206 2.5
0.97249037 -0.75626206 2.5
0.93629348 -0.74662817 2.5
0.94514155 -0.74743098 2.5
0.95559847 -0.74903661 2.5
0.96525091 -0.74662817 2.5
0.97249037 -0.74662817 2.5
0.96525097 -0.73699427 2.5
0.97249037 -0.73699427 2.5
0.95479411 -0.72334617 2.5
0.96525091 -0.7249518 2.5
0.97249037 -0.72254336 2.5
0.96525091 -0.71290946 2.5
0.97249037 -0.71290946 2.5
0.97249037 -0.70327556 2.5
0.97249037 -0.69605011 2.5
0.8056438 -0.94698846 2.5139999
