# .PCD v0.7 - Point Cloud Data file format
VERSION 0.7
FIELDS x y z
SIZE 4 4 4
TYPE F F F
COUNT 1 1 1
WIDTH 173
HEIGHT 1
VIEWPOINT 0 0 0 1 0 0 0
POINTS 173
DATA ascii
0.19311969 -0.85761845 2.2479999
0.065415062 -0.87269658 2.2590001
0.074137069 -0.87269658 2.2590001
0.085039578 -0.87269658 2.2590001
0.093761586 -0.87269658 2.2590001
0.13519113 -0.87269658 2.2590001
0.1431863 -0.87414742 2.2590001
0.15481564 -0.87269658 2.2590001
0.16571815 -0.87269658 2.2590001
0.17444016 -0.87269658 2.2590001
0.18534267 -0.87269658 2.2590001
0.19624518 -0.87269658 2.2590001
0.20496719 -0.87269658 2.2590001
0.067595564 -0.86616766 2.2590001
0.074137069 -0.86616766 2.2590001
0.085039578 -0.8661676 2.2590001
0.095215254 -0.86544228 2.2590001
0.13519113 -0.86616766 2.2590001
0.14391313 -0.86616766 2.2590001
0.15481566 -0.8661676 2.2590001
0.16571815 -0.86616766 2.2590001
0.17444016 -0.86616766 2.2590001
0.18527268 -0.86584854 2.2581666
0.19682884 -0.86625242 2.2573335
0.2049672 -0.86616766 2.2590001
0.037068535 -0.85310984 2.2590001
0.053640347 -0.85528612 2.2590001
0.066141896 -0.85673696 2.2590001
0.074573174 -0.85615665 2.2590001
0.085039578 -0.85528612 2.2590001
0.095942087 -0.85528612 2.2590001
0.10466409 -0.85528612 2.2590001
0.13519113 -0.85528612 2.2590001
0.14391313 -0.85528612 2.2590001
0.15481564 -0.85528612 2.2590001
0.16571815 -0.85528612 2.2590001
0.17444015 -0.85528612 2.2590001
0.18528669 -0.85503286 2.2583334
0.19656101 -0.85388553 2.2576001
0.050151546 -0.84440464 2.2590001
0.071956567 -0.84658092 2.2590001
0.089400582 -0.84658092 2.2590001
0.095942087 -0.84658092 2.2590001
0.10539093 -0.84513003 2.2590001
0.11992761 -0.84222835 2.2590001
0.12646912 -0.84222835 2.2590001
0.13519113 -0.84440464 2.2590001
0.14391313 -0.84440464 2.2590001
0.15481566 -0.84440464 2.2590001
0.16571815 -0.84440464 2.2590001
0.17444016 -0.84440464 2.2590001
0.18534267 -0.84440464 2.2590001
0.050151546 -0.83787572 2.2590001
0.06323456 -0.83352315 2.2590001
0.1068446 -0.83569944 2.2590001
0.1155666 -0.8356995 2.2590001
0.12646912 -0.83569944 2.2590001
0.13519113 -0.83569944 2.2590001
0.14391313 -0.83569944 2.2590001
0.15481564 -0.8356995 2.2590001
0.16571815 -0.83569944 2.2590001
0.17444016 -0.83569944 2.2590001
0.095942087 -0.82046533 2.2590001
0.10466409 -0.82481796 2.2590001
0.1155666 -0.82481796 2.2590001
0.12646912 -0.82481796 2.2590001
0.13519113 -0.82481796 2.2590001
0.14391313 -0.8248179 2.2590001
0.15481564 -0.82481802 2.2590001
0.076317571 -0.81176013 2.2590001
0.086129829 -0.81284827 2.2590001
0.095942087 -0.81393641 2.2590001
0.10466409 -0.81393641 2.2590001
0.11556659 -0.81393641 2.2590001
0.12646912 -0.81393647 2.2590001
0.13519113 -0.81393647 2.2590001
0.14391313 -0.81393641 2.2590001
0.076317571 -0.80523121 2.2590001
0.085039578 -0.80523127 2.2590001
0.095942087 -0.80523127 2.2590001
0.10393726 -0.80595666 2.2590001
0.1155666 -0.80740756 2.2590001
0.12646912 -0.80740756 2.2590001
0.13519113 -0.80740756 2.2590001
0.076317571 -0.79652607 2.2590001
0.083949327 -0.79761422 2.2590001
0.065675676 -0.88054329 2.2679999
0.074432425 -0.88054329 2.2679999
0.085378371 -0.88054329 2.2679999
0.096324317 -0.88054329 2.2679999
0.1553639 -0.88015509 2.267
0.056817569 -0.87244606 2.2639999
0.098296329 -0.87206072 2.263
0.10293726 -0.87655973 2.2690001
0.12916216 -0.87398839 2.2679999
0.13542953 -0.87860215 2.263
0.14628765 -0.87821388 2.2620001
0.010929054 -0.86391187 2.2645001
0.037232626 -0.86344415 2.2690001
0.056387834 -0.86510688 2.2641997
0.063346528 -0.86551982 2.263
0.105014 -0.86685979 2.2665
0.12916216 -0.86743349 2.2679999
0.13318726 -0.86078036 2.2620001
0.032794401 -0.85537475 2.2649999
0.043686293 -0.85462189 2.263
0.056755308 -0.85187525 2.2614999
0.065516889 -0.85225195 2.2625
0.07202027 -0.85168689 2.2609999
0.1115502 -0.85357034 2.266
0.13615733 -0.85534716 2.2629998
0.037128698 -0.84359282 2.2626667
0.044465572 -0.84616798 2.2656667
0.056432821 -0.84571141 2.266
0.067864865 -0.84121382 2.2679999
0.07504151 -0.84566897 2.2643332
0.085277751 -0.84673768 2.26525
0.10280116 -0.84265512 2.266
0.11295849 -0.84592074 2.2650001
0.12899132 -0.84882951 2.2650001
0.045912161 -0.8379181 2.2649999
0.055689674 -0.83372301 2.2625
0.065589771 -0.8379181 2.2649999
0.072275095 -0.83284104 2.2690001
0.09842664 -0.8317399 2.266
0.1027558 -0.83573705 2.2650001
0.065560803 -0.8288213 2.2639999
0.074384652 -0.82318926 2.2665
0.089638032 -0.82264453 2.2650001
0.098383211 -0.82700872 2.2650001
0.066377409 -0.81317824 2.267
0.07366088 -0.81742781 2.2666667
0.083002895 -0.81755781 2.263
0.065181851 -0.80466926 2.266
0.07214769 -0.80518788 2.2650001
0.085172452 -0.79418236 2.2626667
0.10252896 -0.79905587 2.26
0.046155404 -0.88403755 2.277
0.055746138 -0.88454896 2.2737999
0.065849423 -0.8872543 2.2739999
0.074713796 -0.88822973 2.2765
-0.0021978763 -0.87306935 2.277
0.0043899613 -0.8741098 2.2739999
0.015361004 -0.87604499 2.2733333
0.025608107 -0.8755703 2.2739999
0.03511969 -0.8741098 2.2739999
0.043899611 -0.87630057 2.2739999
0.051923741 -0.87664443 2.273
-0.0021978763 -0.86429477 2.277
0.0043899613 -0.86534673 2.2739999
0.016612383 -0.86433923 2.273
0.026339764 -0.86534685 2.2739999
0.034373552 -0.86788726 2.273
0.04387524 -0.86706185 2.2727501
0.050417952 -0.86858088 2.2709999
-0.0021978763 -0.85552025 2.277
0.0043899613 -0.85658377 2.2739999
0.015371621 -0.85586321 2.2750001
0.027099421 -0.85599971 2.2763333
0.032924708 -0.8522023 2.2739999
0.041631274 -0.85070324 2.27
0.06579344 -0.85145277 2.2719998
-0.002199807 -0.84968501 2.279
0.019785233 -0.84473652 2.2775002
0.032924708 -0.84563005 2.2739999
0.041631274 -0.84195566 2.27
0.059186291 -0.84232658 2.2709999
0.065791503 -0.84707516 2.2720001
0.035866473 -0.83796567 2.2749999
-0.0022055986 -0.88274086 2.2850001
0.0044092662 -0.8823545 2.2839999
0.015432111 -0.88688469 2.2843332
0.026425192 -0.88358814 2.2814999
