# .PCD v0.7 - Point Cloud Data file format
VERSION 0.7
FIELDS x y z
SIZE 4 4 4
TYPE F F F
COUNT 1 1 1
WIDTH 161
HEIGHT 1
VIEWPOINT 0 0 0 1 0 0 0
POINTS 161
DATA ascii
-0.31662571 0.14631672 1.5657501
-0.31617194 0.15495411 1.5653751
-0.31894401 0.16142775 1.566
-0.33226061 0.1384287 1.579
-0.32057336 0.13799037 1.574
-0.3145 0.13799037 1.574
-0.30443126 0.13498299 1.5743334
-0.2967965 0.13674065 1.5736001
-0.28839236 0.13785887 1.5725
-0.33291382 0.14494811 1.5789999
-0.32558092 0.14425386 1.5761666
-0.31333786 0.14387283 1.572
-0.30499229 0.14538728 1.5720001
-0.29588804 0.14538728 1.5720001
-0.28608397 0.14493434 1.5741428
-0.27891603 0.14451349 1.579
-0.33350763 0.15474698 1.5790001
-0.3258557 0.15501444 1.5775001
-0.3117705 0.15672038 1.57175
-0.30499232 0.15598844 1.572
-0.29588804 0.15598844 1.572
-0.28513941 0.15529191 1.5737144
-0.27891603 0.15516186 1.579
-0.33073649 0.16581021 1.579
-0.32448468 0.16591342 1.576375
-0.3140741 0.16506369 1.571889
-0.30527169 0.16522832 1.5734444
-0.29524082 0.16556551 1.5766667
-0.28497222 0.16578729 1.5787779
-0.27891603 0.16581021 1.579
-0.32402766 0.174605 1.576
-0.31409654 0.17416185 1.572
-0.30529153 0.17433269 1.5735556
-0.29539624 0.17477119 1.5775002
-0.28653669 0.17493737 1.579
-0.33226061 0.18710694 1.579
-0.32369491 0.18478622 1.5757275
-0.31442016 0.18386638 1.5721003
-0.3045041 0.18417268 1.5734168
-0.29494426 0.18392122 1.5777779
-0.28806081 0.18102215 1.579
-0.33247834 0.19406095 1.5789999
-0.32297763 0.19533606 1.5758333
-0.31481618 0.19488026 1.577
-0.30423766 0.19483423 1.5775334
-0.29429898 0.19503687 1.5782727
-0.28806081 0.19167051 1.579
-0.32159171 0.20536126 1.579
-0.31549516 0.20536129 1.579
-0.30535597 0.20479827 1.577
-0.29586065 0.20507623 1.573875
-0.32132015 0.21430862 1.5776668
-0.31515896 0.21274245 1.5773333
-0.30481043 0.21447726 1.5789169
-0.29543275 0.21430957 1.5776666
-0.30215901 0.22399589 1.579
-0.29589921 0.22448489 1.5789999
-0.35068387 0.13755733 1.5864999
-0.34459424 0.13757162 1.5866667
-0.33526382 0.13700449 1.586
-0.3258183 0.13740343 1.5847501
-0.31556225 0.13454191 1.5869999
-0.3099865 0.13259538 1.582
-0.29814672 0.132763 1.584
-0.28291216 0.13889627 1.5843333
-0.3696419 0.14236705 1.589
-0.3528567 0.14563073 1.5864285
-0.34440196 0.14513338 1.5857778
-0.33789963 0.14344509 1.584
-0.27618596 0.14725305 1.5866667
-0.35254496 0.15376821 1.5865999
-0.34430632 0.1542569 1.5853333
-0.27525359 0.15489969 1.5830001
-0.35057336 0.1634894 1.586
-0.34448615 0.16503452 1.5861669
-0.33689269 0.16561382 1.5854285
-0.27576041 0.16465029 1.5854
-0.34215346 0.17494893 1.586
-0.33512482 0.17563903 1.5853335
-0.28134674 0.17592524 1.5824001
-0.27794304 0.17500482 1.5864999
-0.34138802 0.18335259 1.586
-0.33539933 0.1838398 1.5845715
-0.29129344 0.18570328 1.58
-0.28417999 0.18506421 1.5851818
-0.27735281 0.18352553 1.5875001
-0.33094597 0.1994027 1.58
-0.32729214 0.19457547 1.5820001
-0.28366798 0.19026975 1.58
-0.33230746 0.20480973 1.5865
-0.32705715 0.20550558 1.5848
-0.32653621 0.21447158 1.5845001
-0.31635782 0.21812783 1.5833334
-0.32077062 0.22243129 1.585
-0.31179085 0.22256969 1.586
-0.30722344 0.22577889 1.5834999
-0.30407044 0.23028226 1.5829999
-0.37057242 0.1381214 1.5930001
-0.36442181 0.1381214 1.5930001
-0.35633686 0.13716474 1.5926001
-0.33960617 0.13650097 1.592
-0.32566506 0.13710116 1.599
-0.27848843 0.13974373 1.594
-0.363653 0.14349279 1.5930001
-0.35827124 0.14426012 1.5930001
-0.2747612 0.14525375 1.5937999
-0.35592374 0.15487315 1.5916667
-0.27233398 0.15510018 1.594
-0.35343724 0.16104046 1.592
-0.27335972 0.16431406 1.594
-0.27479535 0.17598498 1.5940001
-0.27738658 0.18764499 1.5964999
-0.33017856 0.2053892 1.591
-0.31686971 0.22429383 1.5910001
-0.35212356 0.13410404 1.6
-0.34792471 0.13427168 1.602
-0.27256978 0.14362952 1.6031429
-0.26456144 0.14514707 1.6028334
-0.2567755 0.14565481 1.6011429
-0.27027029 0.15568401 1.6
-0.264256 0.15578301 1.6010002
-0.25695947 0.1560456 1.6036667
-0.27108473 0.16572952 1.60025
-0.26469404 0.16531183 1.6036667
-0.25920463 0.16575722 1.6080002
-0.27189913 0.17423554 1.6005
-0.26524788 0.17494488 1.6069999
-0.25920463 0.17350289 1.608
-0.27267131 0.1827158 1.6005
-0.26589698 0.18182538 1.6062499
-0.34507337 0.13450097 1.6140001
-0.32620946 0.13552891 1.617
-0.27280405 0.13847302 1.615
-0.26812741 0.13847302 1.615
-0.3431887 0.13451108 1.6235
-0.3321197 0.13759539 1.623
-0.27652895 0.13721323 1.6246667
-0.35416216 0.1278208 1.638
-0.34941891 0.1278208 1.638
-0.34467566 0.13413295 1.638
-0.33539689 0.13509557 1.6344
-0.3272838 0.13413295 1.638
-0.34582964 0.12825 1.6435
-0.33226156 0.12852311 1.647
-0.3522867 0.13145664 1.6440001
-0.34434748 0.13145666 1.6440001
-0.33552268 0.13220666 1.6435
-0.32709652 0.13311946 1.645
-0.34196478 0.12918642 1.6554999
-0.33394596 0.12704624 1.6553334
-0.32768339 0.12922543 1.656
-0.3274855 0.13233621 1.655
-0.31790057 0.13552505 1.655
-0.34310234 0.12641522 1.661
-0.33187935 0.12641522 1.661
-0.31083059 0.12537813 1.6684999
-0.30622685 0.12641522 1.661
-0.33951449 0.13008381 1.6670001
-0.32365337 0.13281973 1.6661249
-0.31414685 0.13287994 1.666875
-0.30652183 0.13422102 1.6625999
