# .PCD v0.7 - Point Cloud Data file format
VERSION 0.7
FIELDS x y z
SIZE 4 4 4
TYPE F F F
COUNT 1 1 1
WIDTH 333
HEIGHT 1
VIEWPOINT 0 0 0 1 0 0 0
POINTS 333
DATA ascii
-0.93827611 -0.034231216 2.5380001
-0.89347494 -0.034204237 2.536
-0.88543147 -0.035022799 2.5363333
-0.87633979 -0.034204237 2.536
-0.8665483 -0.034204237 2.536
-0.94243246 -0.024431601 2.536
-0.93639642 -0.023630058 2.5373335
-0.8938272 -0.024441233 2.5369999
-0.87423646 -0.024441233 2.5369999
-0.8665483 -0.024431601 2.536
-0.85920465 -0.02687476 2.536
-0.94168913 -0.017088631 2.5339999
-0.93527269 -0.014662333 2.5365002
-0.92566121 -0.012220617 2.5370002
-0.89636463 -0.014665463 2.5372498
-0.87423646 -0.014664739 2.5369999
-0.86680382 -0.014662572 2.5367498
-0.94243246 -0.0024431599 2.536
-0.93508875 -0.0048863199 2.536
-0.92829394 -0.0048887283 2.5374999
-0.90362257 -0.0024441232 2.5369999
-0.89546108 -0.0040728967 2.5369999
-0.87213027 -0.0048892098 2.5380001
-0.86705935 -0.0048877648 2.5374999
-0.94243246 0.0048863199 2.536
-0.93615055 0.0040732175 2.5366666
-0.90326643 0.0048863199 2.536
-0.89592284 0.0048863199 2.536
-0.88857913 0.0073294798 2.536
-0.87913418 0.0073323697 2.5369999
-0.94298989 0.014668113 2.5374999
-0.90433496 0.012230251 2.539
-0.89581347 0.013856134 2.5380001
-0.88857913 0.01465896 2.536
-0.87982726 0.012230251 2.539
-0.94317573 0.024450868 2.5380001
-0.8892799 0.024451829 2.5380001
-0.94224668 0.034197014 2.5355
-0.93790638 0.034216762 2.5370002
-0.93319261 0.044002406 2.5374999
-0.92884266 0.046474952 2.539
-0.93337649 0.051346824 2.5380001
-0.92847687 0.056236997 2.5380001
-0.8553195 0.090503857 2.539
-0.84061486 0.10273411 2.539
-0.83489043 0.10507755 2.5365
-0.82632047 0.10752071 2.5365
-0.81546426 0.10998555 2.5369999
-0.84061486 0.11251831 2.539
-0.83472586 0.11482852 2.536
-0.82395524 0.11678305 2.536
-0.81514287 0.11727168 2.536
-0.92547923 0.12706935 2.5365
-0.92623454 0.13602023 2.5363333
-0.92957431 -0.03671965 2.5409999
-0.9046911 -0.036705203 2.54
-0.88998067 -0.031811174 2.54
-0.88262546 -0.026917148 2.54
-0.88507718 -0.017129093 2.54
-0.92430502 -0.0073410403 2.54
-0.87527025 -0.0024470135 2.54
-0.93411195 0.0073410403 2.54
-0.92920846 0.0024470135 2.54
-0.93901545 0.012235067 2.54
-0.83113897 0.10522158 2.54
-0.83113897 0.11990366 2.54
-0.93773907 -0.033630379 2.5543334
-0.92729735 -0.0344605 2.5550001
-0.91595268 -0.033968206 2.5550001
-0.90510136 -0.0344605 2.5550001
-0.86054099 -0.034454241 2.5545001
-0.85356057 -0.034469895 2.5557501
-0.84640878 -0.03447929 2.5565
-0.93597239 -0.025424534 2.5540001
-0.92729735 -0.024614643 2.5550001
-0.91496617 -0.024614645 2.5550001
-0.90456998 -0.024601638 2.5535002
-0.89523649 -0.024614643 2.5550001
-0.88731515 -0.022140175 2.5535002
-0.86212778 -0.023788376 2.5543334
-0.85413289 -0.023794154 2.5550001
-0.84591216 -0.02215318 2.5550001
-0.93359846 -0.01721002 2.552
-0.9261114 -0.015582532 2.5540001
-0.91595268 -0.014276494 2.5550001
-0.90967757 -0.017223505 2.5539999
-0.89359236 -0.013948299 2.5550001
-0.88519835 -0.014765413 2.5545001
-0.86292154 -0.01476421 2.55425
-0.8534773 -0.014771195 2.5555
-0.84591216 -0.014768787 2.5550001
-0.92647529 -0.0041024406 2.5550001
-0.91595268 -0.0054152217 2.5550001
-0.90403861 -0.0073757228 2.552
-0.89277029 -0.0049229288 2.5550001
-0.88537163 -0.0049229288 2.5550001
-0.86431503 -0.0054127173 2.5540001
-0.85577703 -0.0049229288 2.5550001
-0.84723651 -0.0073959539 2.559
-0.93469596 0.0073843934 2.5550001
-0.92729735 0.0049229292 2.5550001
-0.91725338 0.0049219653 2.5545001
-0.8922447 0.0024600192 2.5535002
-0.88379198 0.0049210014 2.5539999
-0.87304056 0.0049229288 2.5550001
-0.86317569 0.0049229288 2.5550001
-0.85611194 0.0049258186 2.556
-0.94456083 0.017230252 2.5550001
-0.93590117 0.014279768 2.5555999
-0.92308688 0.014780346 2.5569999
-0.91505575 0.014770953 2.5552502
-0.90510136 0.017230252 2.5550001
-0.88516331 0.015257803 2.5544
-0.87304056 0.014768787 2.5550001
-0.86317569 0.014768787 2.5550001
-0.9441911 0.024604047 2.5539999
-0.93847269 0.023806358 2.5563333
-0.91003382 0.024614643 2.5550001
-0.90263516 0.024614643 2.5550001
-0.88525552 0.024611434 2.5546668
-0.87304056 0.024614645 2.5550001
-0.86317569 0.024614643 2.5550001
-0.85577703 0.027076108 2.5550001
-0.93706971 0.03445641 2.55475
-0.92495114 0.036926784 2.5553334
-0.91003382 0.0344605 2.5550001
-0.90263516 0.0344605 2.5550001
-0.89277029 0.0344605 2.5550001
-0.88290542 0.0344605 2.5550001
-0.87304056 0.0344605 2.5550001
-0.86317569 0.0344605 2.5550001
-0.85577703 0.0344605 2.5550001
-0.93396425 0.041812137 2.553
-0.92729735 0.04430636 2.5550001
-0.91496629 0.044306364 2.5550001
-0.90263516 0.04430636 2.5550001
-0.89277029 0.04430636 2.5550001
-0.88290542 0.04430636 2.5550001
-0.87304056 0.04430636 2.5550001
-0.86317569 0.04430636 2.5550001
-0.85331082 0.04430636 2.5550001
-0.84352875 0.044310458 2.5552502
-0.83604729 0.04430636 2.5550001
-0.93433011 0.051670518 2.5539999
-0.92729735 0.054152217 2.5550001
-0.91496617 0.054152217 2.5550001
-0.90263516 0.054152217 2.5550001
-0.89277029 0.054152217 2.5550001
-0.88290542 0.054152217 2.5550001
-0.87304056 0.054152217 2.5550001
-0.86317569 0.054152217 2.5550001
-0.85331082 0.054152217 2.5550001
-0.84344596 0.054152217 2.5550001
-0.83604729 0.054152217 2.5550001
-0.9202587 0.061560694 2.556
-0.91250002 0.063998073 2.5550001
-0.90263516 0.063998073 2.5550001
-0.89277029 0.063998073 2.5550001
-0.88290542 0.063998073 2.5550001
-0.87304056 0.063998073 2.5550001
-0.86317569 0.063998073 2.5550001
-0.85331082 0.063998073 2.5550001
-0.84344596 0.063998073 2.5550001
-0.83440322 0.064818561 2.5550001
-0.82618243 0.066459537 2.5550001
-0.91285717 0.071410403 2.556
-0.90263516 0.073843934 2.5550001
-0.89277029 0.073843934 2.5550001
-0.88290542 0.073843934 2.5550001
-0.87304056 0.073843934 2.5550001
-0.86317569 0.073843934 2.5550001
-0.85331082 0.073843934 2.5550001
-0.84344596 0.073843934 2.5550001
-0.83358109 0.073843934 2.5550001
-0.82618243 0.073843934 2.5550001
-0.90016896 0.081228323 2.5550001
-0.89370918 0.082880534 2.5553334
-0.88299209 0.083698213 2.5552502
-0.87304056 0.083689794 2.5550001
-0.86317569 0.083689794 2.5550001
-0.85331082 0.083689794 2.5550001
-0.84344596 0.083689786 2.5550001
-0.83358109 0.083689794 2.5550001
-0.82371622 0.083689794 2.5550001
-0.89382595 0.09273956 2.5556667
-0.88299209 0.093545035 2.5552502
-0.87304056 0.093535647 2.5550001
-0.86399776 0.094356142 2.5550001
-0.85314333 0.093517825 2.5545001
-0.84344596 0.093535647 2.5550001
-0.83358109 0.093535647 2.5550001
-0.82371622 0.093535647 2.5550001
-0.89558685 0.10095954 2.556
-0.88307869 0.10340174 2.5555
-0.87304056 0.1033815 2.5550001
-0.86317569 0.1033815 2.5550001
-0.85331082 0.10338151 2.5550001
-0.83999228 0.10571869 2.552
-0.82574874 0.10332755 2.5536668
-0.88407403 0.1124515 2.556
-0.87304056 0.11322737 2.5550001
-0.86317569 0.11322736 2.5550001
-0.85331082 0.11322737 2.5550001
-0.9225449 0.12555924 2.5555
-0.88606465 0.12070616 2.5569999
-0.87304056 0.12307322 2.5550001
-0.86317569 0.12307322 2.5550001
-0.85331082 0.12307322 2.5550001
-0.84344596 0.12307322 2.5550001
-0.83341843 0.12551011 2.5545001
-0.82339382 0.12548554 2.5539999
-0.92483109 0.13291907 2.5550001
-0.91989869 0.13291907 2.5550001
-0.87329757 0.13295834 2.5557501
-0.86317569 0.13291907 2.5550001
-0.85331082 0.13045761 2.5550001
-0.84369427 0.13295881 2.5557501
-0.83358109 0.13291907 2.5550001
-0.82371622 0.13291907 2.5550001
-0.87338316 0.14282082 2.556
-0.86564189 0.14276494 2.5550001
-0.85397977 0.1404133 2.5570002
-0.84295303 0.14200129 2.556
-0.83358109 0.14030348 2.5550001
-0.82371622 0.14030348 2.5550001
-0.87338316 0.15020809 2.556
-0.86564189 0.15014933 2.5550001
-0.84317321 0.15353051 2.5566666
-0.85550678 -0.02722447 2.569
-0.83566892 0.14602216 2.569
-0.84524679 -0.035530191 2.573
-0.85120952 -0.027245665 2.5710001
-0.84513837 -0.023958893 2.5726666
-0.83729535 -0.022317918 2.5739999
-0.84425533 -0.014869941 2.5725
-0.83729535 -0.017358381 2.5739999
-0.85496044 -0.004130058 2.5723333
-0.84482944 -0.0049592964 2.57425
-0.85427099 0.0049573695 2.5727501
-0.93401206 0.01735501 2.5734999
-0.86147106 0.014867052 2.572
-0.85468721 0.014878613 2.5739999
-0.84723353 0.017358381 2.5739999
-0.83513606 0.017365124 2.5749998
-0.94091505 0.027256262 2.572
-0.93419302 0.024797685 2.5739999
-0.92407578 0.024792869 2.5734999
-0.86080116 0.022283236 2.5699999
-0.8543542 0.024787571 2.573
-0.84474897 0.024797685 2.5739999
-0.83481079 0.024797685 2.5739999
-0.93419302 0.032236993 2.5739999
-0.92306852 0.033876363 2.573
-0.85393894 0.034685694 2.5717499
-0.84442079 0.034702312 2.573
-0.83472943 0.034713149 2.57375
-0.83416021 0.044601157 2.572
-0.83416021 0.054512523 2.572
-0.83399856 0.061934005 2.5714998
-0.92177022 0.076872826 2.5739999
-0.9168011 0.076872826 2.5739999
-0.91183197 0.081832364 2.5739999
-0.90686291 0.086791903 2.5739999
-0.89622784 0.086724468 2.572
-0.90686291 0.094231211 2.5739999
-0.89657623 0.096673407 2.573
-0.9052065 0.10497687 2.5739999
-0.89675045 0.10413054 2.5734999
-0.90189379 0.11406936 2.5739999
-0.89692467 0.11158959 2.5739999
-0.88629729 0.11645857 2.572
-0.92342663 0.12316185 2.5739999
-0.90224421 0.12155588 2.575
-0.89195555 0.1264682 2.5739999
-0.88664186 0.12394123 2.573
-0.92177022 0.1339075 2.5739999
-0.89247537 0.13398507 2.5755
-0.88698643 0.13638727 2.5739999
-0.86113614 0.13622832 2.5710001
-0.85683876 0.1363343 2.573
-0.89264864 0.14642003 2.576
-0.88715875 0.14385405 2.5745001
-0.86466831 0.14452249 2.5716667
-0.85435522 0.14624952 2.573
-0.84095556 0.14607899 2.5699999
-0.89195555 0.15126589 2.5739999
-0.88698643 0.15126589 2.5739999
-0.86412019 0.15117773 2.5725
-0.85468721 0.15126589 2.5739999
-0.84095556 0.15103082 2.5699999
-0.83729535 0.15126589 2.5739999
-0.84684557 -0.02742582 2.5880001
-0.83989769 -0.01243738 2.582
-0.85184175 0.012466282 2.5880001
-0.84684557 0.017452795 2.5880001
-0.84470874 -0.034121707 2.5916665
-0.8389551 -0.034991808 2.5945001
-0.84249997 -0.0049903658 2.5899999
-0.83847004 -0.0049961465 2.5929999
-0.85249996 0.0049903658 2.5899999
-0.84597874 0.0049961465 2.5929999
-0.83847004 0.0049961465 2.5929999
-0.84548986 0.01248314 2.5915
-0.83782339 0.012480733 2.5910001
-0.92356849 0.084934488 2.5929999
-0.91856271 0.087432563 2.5929999
-0.91856271 0.094926775 2.5929999
-0.91856271 0.10491907 2.5929999
-0.9335801 0.11740944 2.5929999
-0.92607141 0.11241329 2.5929999
-0.91522551 0.11407867 2.5929999
-0.90319693 0.11736416 2.592
-0.92356849 0.12490365 2.5929999
-0.91605985 0.12490365 2.5929999
-0.90498096 0.12570423 2.5923333
-0.90389383 0.13744701 2.5940001
-0.89284462 0.13229577 2.5910001
-0.90622342 0.14241764 2.5935001
-0.89819306 0.14233527 2.592
-0.84835523 -0.027637765 2.608
-0.84461391 -0.027680155 2.612
-0.93537837 0.083040461 2.612
-0.93033588 0.095622346 2.612
-0.94042087 0.10820424 2.612
-0.93285716 0.10568786 2.612
-0.94006085 0.11319365 2.6110001
-0.93285716 0.11826975 2.612
-0.92529345 0.11826975 2.612
-0.92608863 0.13635664 2.6113999
-0.91665512 0.13501157 2.6113334
-0.90981758 0.13331696 2.6110001
-0.93033588 0.14343353 2.612
-0.92277217 0.14343353 2.612
