# .PCD v0.7 - Point Cloud Data file format
VERSION 0.7
FIELDS x y z
SIZE 4 4 4
TYPE F F F
COUNT 1 1 1
WIDTH 102
HEIGHT 1
VIEWPOINT 0 0 0 1 0 0 0
POINTS 102
DATA ascii
-0.50181466 0.085510597 2.536
-0.50181466 0.09528324 2.536
-0.49447104 0.09528324 2.536
-0.5310666 0.096147403 2.559
-0.51050675 0.09599711 2.5550001
-0.50064188 0.091074184 2.5550001
-0.50310814 0.10338151 2.5550001
-0.49425745 0.10424342 2.556
-0.52216017 0.086859345 2.576
-0.53914863 0.09671098 2.5739999
-0.52672583 0.094231218 2.5739999
-0.51734686 0.093354523 2.5726664
-0.50854248 0.09160886 2.5699999
-0.525056 0.10182852 2.5780001
-0.51430309 0.10167052 2.5739999
-0.48945752 0.10663005 2.5739999
-0.50416893 0.11154624 2.573
-0.49710229 0.11163294 2.5749998
-0.53208882 0.087263972 2.5880001
-0.53208882 0.10222351 2.5880001
-0.52229828 0.102263 2.589
-0.51809943 0.087432563 2.5929999
-0.54291892 0.10238151 2.592
-0.53791505 0.10238151 2.592
-0.52550626 0.10739644 2.5925
-0.51789963 0.10737573 2.592
-0.50538993 0.11736416 2.592
-0.49461165 0.11571451 2.5923333
-0.48806465 0.11740944 2.5929999
-0.50616992 0.1225472 2.596
-0.53414482 0.1526763 2.598
-0.50558496 0.15488054 2.5929999
-0.4965997 0.15577199 2.5939999
-0.48556176 0.15737861 2.5929999
-0.47860616 0.15756069 2.596
-0.51309359 0.16487283 2.5929999
-0.50641924 0.16404013 2.5929999
-0.48806465 0.16237475 2.5929999
-0.53599519 0.10799711 2.6070001
-0.51606178 0.11557611 2.608
-0.5445869 0.10820424 2.612
-0.54206562 0.11323699 2.612
-0.53366154 0.11491457 2.612
-0.5255264 0.11497495 2.6133332
-0.53198069 0.1233025 2.612
-0.52774519 0.12349132 2.6159999
-0.51181078 0.12833525 2.612
-0.5034067 0.12665766 2.612
-0.49416214 0.12581888 2.612
-0.48491764 0.12665766 2.612
-0.51181078 0.13588439 2.612
-0.50424707 0.13588439 2.612
-0.49430332 0.13592413 2.6127501
-0.48407722 0.13336802 2.612
-0.47706082 0.1335212 2.615
-0.53805119 0.14875048 2.6170001
-0.51181078 0.1459499 2.612
-0.50424707 0.1459499 2.612
-0.49416217 0.1459499 2.612
-0.48435378 0.14603372 2.6135001
-0.5324899 0.15616618 2.6145
-0.52794695 0.15379287 2.6170001
-0.49416214 0.15349904 2.612
-0.48407722 0.15349904 2.612
-0.47412765 0.15605947 2.6127501
-0.46642858 0.15853179 2.612
-0.52794695 0.16387765 2.6170001
-0.54010719 0.11894894 2.6270001
-0.52489287 0.11894894 2.6270001
-0.52001929 0.12912139 2.628
-0.5192278 0.12386898 2.6240001
-0.52001929 0.13671675 2.628
-0.52001929 0.14684394 2.628
-0.5192278 0.15673219 2.6240001
-0.54600871 0.11913006 2.631
-0.53331083 0.1292688 2.631
-0.52569211 0.12673411 2.631
-0.53376472 0.13699013 2.63325
-0.49013802 0.13940752 2.631
-0.48505887 0.13940752 2.631
-0.47695461 0.13782178 2.6330001
-0.54367566 0.14453179 2.632
-0.53336126 0.1470253 2.6312499
-0.525792 0.14703903 2.6315
-0.47620368 0.1476083 2.6326001
-0.46491891 0.14960308 2.632
-0.53077126 0.15968497 2.631
-0.52569211 0.1571503 2.631
-0.47 0.15467437 2.632
-0.52569211 0.16728902 2.631
-0.54421914 0.13260502 2.6470001
-0.528889 0.13515511 2.6470001
-0.54421914 0.1402553 2.6470001
-0.528889 0.1402553 2.6470001
-0.54648072 0.12547399 2.658
-0.55026305 0.13282996 2.6515
-0.47339287 0.13535935 2.651
-0.4682751 0.13535935 2.651
-0.55015928 0.14046724 2.651
-0.47339287 0.1430212 2.651
-0.46656919 0.14387251 2.651
-0.55430984 0.12608767 2.671
