# .PCD v0.7 - Point Cloud Data file format
VERSION 0.7
FIELDS x y z
SIZE 4 4 4
TYPE F F F
COUNT 1 1 1
WIDTH 290
HEIGHT 1
VIEWPOINT 0 0 0 1 0 0 0
POINTS 290
DATA ascii
0.17726496 0.033699423 1.4575
0.18270269 0.047691714 1.456
0.17848648 0.056107901 1.456
0.18257722 0.056069367 1.455
0.17848648 0.061718687 1.456
0.18275696 0.06248305 1.4542
0.19387886 0.10236175 1.4555
0.15586776 -0.0014142583 1.4679999
0.15586776 0.0014142583 1.4679999
0.1601197 0.0056570331 1.4680001
0.1444836 0.018379094 1.4675
0.15728572 0.018385356 1.4680001
0.16578765 0.018385356 1.4680001
0.12638007 0.027205927 1.467
0.13478799 0.025826067 1.467091
0.14443436 0.026045006 1.4669999
0.15497939 0.025810692 1.4653571
0.16458307 0.024987267 1.4645002
0.1747719 0.025978941 1.4635715
0.18216892 0.02677553 1.4629999
0.12791409 0.033447977 1.467
0.13488767 0.034982298 1.4671249
0.14443438 0.035332371 1.467
0.15515219 0.03502715 1.464909
0.16450956 0.03548757 1.4617001
0.17345849 0.035891619 1.461
0.1833301 0.035187859 1.461
0.13598408 0.040999521 1.4675
0.14473683 0.045137569 1.4671999
0.15434651 0.04522543 1.467
0.16413724 0.045195017 1.4659376
0.17492726 0.045057204 1.4615002
0.18339334 0.044118982 1.4614998
0.14728299 0.055125084 1.4671665
0.15434653 0.05511849 1.467
0.16425867 0.055118497 1.467
0.17426842 0.054690462 1.4631001
0.18333012 0.052078035 1.461
0.12894595 0.066470139 1.4680001
0.14777219 0.064084783 1.4673333
0.15434651 0.065011553 1.467
0.16425869 0.065011561 1.4669998
0.17439808 0.065198459 1.4621429
0.18286003 0.068029858 1.461
0.14878379 0.072127171 1.4680001
0.15436947 0.074916184 1.4672222
0.16425867 0.074904621 1.467
0.17547531 0.074859582 1.4660832
0.18503487 0.07521496 1.466125
0.1550224 0.085608549 1.4674444
0.16425869 0.084797688 1.4669998
0.17558685 0.084797695 1.4669998
0.18388073 0.085403383 1.467
0.15488867 0.094262362 1.4676666
0.16425867 0.094690748 1.467
0.17558688 0.094690762 1.467
0.183375 0.093984097 1.467
0.15610926 0.1026474 1.4676
0.16454929 0.1043061 1.4670664
0.17558688 0.10458381 1.4669998
0.1846153 0.10553917 1.465
0.19206101 0.10643468 1.4652001
0.16656481 0.11453263 1.4677143
0.17520069 0.11447687 1.4670001
0.18506919 0.1135607 1.4673333
0.19116312 0.11306359 1.467
0.16741988 0.1246869 1.4674
0.17461553 0.12405024 1.4670768
0.18408301 0.12013006 1.467
0.15527897 0.0067937276 1.475889
0.16459227 0.0088250479 1.4776
0.12835522 0.01707948 1.4775001
0.13451859 0.017757468 1.47475
0.14646621 0.01471291 1.478
0.15476845 0.015266499 1.4743749
0.16459662 0.015628228 1.4750999
0.17326061 0.017527295 1.4753333
0.087083973 0.024222543 1.479
0.095649615 0.024222543 1.479
0.10666258 0.027072255 1.479
0.11544442 0.025602041 1.4765831
0.12359146 0.023815751 1.4760001
0.13222876 0.021286128 1.473
0.14497635 0.021278903 1.4725001
0.17760618 0.021271676 1.472
0.18057047 0.021286128 1.473
0.10788624 0.035214286 1.479
0.11553056 0.035591841 1.4776666
0.12414189 0.03614654 1.4745555
0.13222876 0.038315032 1.473
0.097060621 0.046308283 1.4744
0.10316121 0.046914537 1.4755715
0.11849131 0.041320808 1.479
0.12712768 0.043647401 1.4751428
0.13478802 0.046261851 1.4729999
0.14075966 0.046829481 1.473
0.10278764 0.052719653 1.479
0.12961936 0.055444121 1.4756666
0.13508236 0.055348109 1.473111
0.14218147 0.055343937 1.473
0.12694402 0.065796405 1.474
0.13529448 0.065387852 1.4754165
0.14304413 0.065849811 1.4730999
0.12628986 0.075402215 1.4767001
0.13562259 0.075517341 1.479
0.14485663 0.075586967 1.4752728
0.12555562 0.082593568 1.478125
0.13676468 0.083496526 1.479
0.14619185 0.085272558 1.4752499
0.15308206 0.082779385 1.473
0.18600482 0.080777451 1.471
0.13657433 0.093565501 1.479
0.14786874 0.095078044 1.473
0.15399486 0.096003212 1.4726667
0.1370502 0.10971387 1.479
0.14564654 0.10554405 1.4764667
0.15375911 0.10643065 1.4730002
0.16066507 0.10926879 1.473
0.12897876 0.11592823 1.4765
0.1351437 0.11500429 1.4737778
0.14507402 0.11498314 1.4734998
0.15504688 0.11499839 1.4736667
0.16180252 0.11494509 1.473
0.18535906 0.11624614 1.4714999
0.12721525 0.12291067 1.4761429
0.13499914 0.12422438 1.4753001
0.14544524 0.12239402 1.4772501
0.15664402 0.12274065 1.478
0.16359757 0.12482011 1.4738182
0.18156043 0.12562755 1.4718001
0.11905212 0.0071579958 1.4859999
0.12474854 0.0071555874 1.4855
0.13473938 0.007153179 1.485
0.14560618 0.0047010733 1.4851428
0.15077415 0.0054219654 1.4820001
0.17045945 0.0071483622 1.484
0.075970076 0.018598266 1.485
0.085315637 0.017888729 1.4855
0.094818249 0.017373521 1.4851428
0.10464565 0.015737958 1.485111
0.11505833 0.014915496 1.4847143
0.12413224 0.013734105 1.4849999
0.13526593 0.01229817 1.4844998
0.14410231 0.011150289 1.4840001
0.17279807 0.012298265 1.4844
0.067369692 0.025751445 1.485
0.074536674 0.024320811 1.485
0.084212117 0.024320809 1.4849999
0.094445422 0.024313366 1.4845452
0.10362177 0.02508877 1.4821428
0.11 0.022813102 1.48
0.066796333 0.035193641 1.485
0.074536681 0.034335263 1.4850001
0.084570467 0.034335259 1.485
0.094604254 0.034335263 1.4850001
0.1027085 0.036265898 1.4820001
0.064866677 0.044710863 1.4851249
0.074536674 0.044349711 1.485
0.084570467 0.044349711 1.4849999
0.093131632 0.043614525 1.4843749
0.10526907 0.042168833 1.4837501
0.11424536 0.04459713 1.4845452
0.12456564 0.045730572 1.4833332
0.066832237 0.053535067 1.4858
0.074394673 0.052945621 1.4853333
0.085160717 0.053803176 1.4852998
0.09429536 0.054638404 1.4846667
0.10463804 0.05531792 1.485
0.11529702 0.053960912 1.4851428
0.12463402 0.054332051 1.4841666
0.067415059 0.064421959 1.4859999
0.073110044 0.065611064 1.4851428
0.084949687 0.064752527 1.4853749
0.094604254 0.064378612 1.485
0.10320464 0.064378612 1.485
0.1175777 0.064400285 1.4855
0.12298552 0.063806355 1.485
0.058769304 0.072962426 1.485
0.065154441 0.07393299 1.4853332
0.074536674 0.074393056 1.4850001
0.084579624 0.074401088 1.4851665
0.094604246 0.074393064 1.4850001
0.10439058 0.074792519 1.4851818
0.11526841 0.074790463 1.4847858
0.12170205 0.07382787 1.4833335
0.078889959 0.08160115 1.4859999
0.08494281 0.084064305 1.4852499
0.094604246 0.084407508 1.485
0.1042489 0.085241258 1.4852856
0.11461124 0.084365524 1.4842501
0.12456886 0.087170839 1.4833335
0.13472146 0.086717591 1.4825715
0.14307216 0.085679434 1.48225
0.084627412 0.090190746 1.4859999
0.098971039 0.094485544 1.4859999
0.10180551 0.094455197 1.4855
0.11565284 0.093489408 1.4853333
0.12467062 0.094395876 1.4845833
0.1334348 0.095238477 1.4835453
0.14308013 0.095680796 1.4823333
0.087496139 0.10450674 1.4859999
0.093208872 0.10619576 1.4856
0.10180551 0.10590221 1.4855
0.12523906 0.10496049 1.4856666
0.13452257 0.10479324 1.4838461
0.14142857 0.10123314 1.48
0.091767862 0.11162716 1.4855
0.11779977 0.11470988 1.4857142
0.12432873 0.11395428 1.4836364
0.13043919 0.11015896 1.485
0.1175777 0.12450723 1.4855
0.12347683 0.12552603 1.484
0.14457561 0.12715511 1.4829999
0.15450819 0.12660711 1.4821666
0.18441023 0.12983719 1.4809999
0.1055769 -0.0014434811 1.4983333
0.085889198 0.0060612718 1.498
0.09456487 0.0066385358 1.498
0.105961 0.0060497113 1.4956
0.11431166 0.0050360067 1.4943749
0.12520947 0.0071820812 1.4910001
0.13969497 0.0043121385 1.492
0.14257529 0.0043121385 1.492
0.079181954 0.017242294 1.4915
0.084609076 0.012577072 1.4919999
0.09496814 0.011985976 1.4932221
0.10513128 0.010061657 1.492
0.11233205 0.010061657 1.492
0.17690155 0.011483623 1.49
0.061926641 0.041684005 1.492
0.059046332 0.054620422 1.492
0.063161053 0.055236448 1.4919999
0.075072393 0.056452386 1.4915714
0.082061291 0.057476398 1.4915
0.10793919 0.05745665 1.4910001
0.11089189 0.057495184 1.492
0.059046332 0.064682074 1.492
0.063983999 0.064682081 1.4919999
0.076884165 0.062940277 1.4916
0.082088806 0.06180732 1.492
0.10793919 0.064638734 1.4910001
0.11233205 0.064682074 1.492
0.059046332 0.075222857 1.492
0.062886745 0.076181114 1.492
0.10793919 0.070384398 1.4910001
0.11085473 0.071844414 1.4915
0.059165061 0.083538532 1.495
0.064921491 0.084960818 1.4946666
0.074495263 0.085066728 1.4919999
0.082088806 0.087680154 1.492
0.1065362 0.081903182 1.4915
0.059283786 0.09236224 1.498
0.065645948 0.094671294 1.498
0.074977435 0.094986647 1.493875
0.084963769 0.095253542 1.491909
0.094432995 0.094867066 1.492
0.10569324 0.09485434 1.4918
0.11233205 0.097741812 1.492
0.066031523 0.10631279 1.498
0.074935324 0.10499807 1.4929999
0.084146164 0.10492872 1.4919999
0.096051708 0.10366654 1.4915714
0.10593409 0.10449766 1.4917144
0.11520568 0.10492302 1.4919167
0.12430535 0.10394766 1.4916667
0.065650091 0.11546079 1.4981
0.074997336 0.11516738 1.4942501
0.084969111 0.11499036 1.492
0.095994294 0.1159296 1.4917499
0.10515412 0.1150167 1.4923333
0.11280341 0.1148222 1.4918888
0.18878669 0.12657419 1.493
0.088555984 -0.0014489403 1.5039999
0.095846042 -0.001449422 1.5044999
0.10236414 -0.0036230732 1.5042498
0.088555984 0.0014489403 1.5039999
0.094943628 0.0026080925 1.5039999
0.10355727 0.0024149003 1.5039998
0.059521232 0.088385351 1.5039999
0.059521232 0.098527938 1.5039999
0.062424708 0.098527938 1.5039999
0.058815151 0.10653179 1.5045
0.063392527 0.10384072 1.5040001
0.059560809 0.11164258 1.505
0.062466215 0.11599229 1.505
0.19320945 0.12324181 1.505
0.093526065 -0.01021002 1.5139999
0.09443754 -0.0052030003 1.511857
0.1006361 -0.00727842 1.511
0.056881279 0.11583085 1.5109999
