# .PCD v0.7 - Point Cloud Data file format
VERSION 0.7
FIELDS x y z
SIZE 4 4 4
TYPE F F F
COUNT 1 1 1
WIDTH 145
HEIGHT 1
VIEWPOINT 0 0 0 1 0 0 0
POINTS 145
DATA ascii
-1.1927346 -0.19369076 2.2590001
-1.1904778 -0.21583526 2.263
-1.1899518 -0.21138151 2.2620001
-1.1950324 -0.20534056 2.2674999
-1.1888996 -0.20684008 2.26
-1.2049618 -0.19448973 2.2683334
-1.1953433 -0.19338036 2.2656002
-1.1969584 -0.18564065 2.267
-1.1954706 -0.21455443 2.2725
-1.189778 -0.21212909 2.27
-1.2055744 -0.20382948 2.2750001
-1.1949464 -0.2035159 2.2715001
-1.189778 -0.2077553 2.27
-1.2029247 -0.19026011 2.27
-1.1919224 -0.19590029 2.2720001
-1.2066343 -0.18426493 2.277
-1.1944381 -0.18343988 2.2722001
-1.2022384 -0.17549038 2.277
-1.1944625 -0.17531815 2.27475
-1.1929228 -0.16883622 2.276
-1.2076941 -0.09001831 2.279
-1.1973166 -0.094285168 2.276
-1.2115618 -0.085589595 2.2780001
-1.2030456 -0.084605776 2.2752001
-1.1973166 -0.08770521 2.276
-1.1953176 -0.22272544 2.289
-1.1931081 -0.21610984 2.289
-1.1864798 -0.21390463 2.289
-1.1931081 -0.2050838 2.2889998
-1.1847122 -0.20508382 2.289
-1.1921942 -0.19390967 2.28725
-1.1842704 -0.19405781 2.289
-1.2139552 -0.18470858 2.2825
-1.1920638 -0.18507515 2.2870002
-1.1842704 -0.18523699 2.289
-1.2132285 -0.17696917 2.2866666
-1.1920638 -0.17626205 2.2870002
-1.1842704 -0.17641619 2.289
-1.1776419 -0.17641619 2.289
-1.2036963 -0.16658831 2.2853334
-1.1945041 -0.16480178 2.2884998
-1.1842704 -0.16539018 2.2889998
-1.1776419 -0.16759539 2.289
-1.2041554 -0.15436417 2.289
-1.1997365 -0.15436417 2.289
-1.2041554 -0.14554337 2.289
-1.1997365 -0.14774856 2.289
-1.205923 -0.13363525 2.289
-1.1997365 -0.13010694 2.289
-1.2071013 -0.1242264 2.289
-1.1997365 -0.12349133 2.289
-1.2071013 -0.11393545 2.289
-1.1997365 -0.11467052 2.289
-1.2152028 -0.10584971 2.289
-1.2063649 -0.10584971 2.289
-1.1997365 -0.10584971 2.289
-1.214273 -0.096956402 2.28725
-1.2049927 -0.097595058 2.2850001
-1.1974653 -0.09464547 2.2846668
-1.2233042 -0.083062626 2.289
-1.2025772 -0.081485547 2.286
-1.2140074 -0.074901007 2.2867501
-1.2055728 -0.074926302 2.2874999
-1.1997365 -0.072771676 2.289
-1.2152028 -0.066156074 2.289
-1.2063649 -0.066156074 2.289
-1.1997365 -0.066156074 2.289
-1.1924595 -0.22301735 2.2920001
-1.167946 -0.22340655 2.296
-1.1858225 -0.21639307 2.2920001
-1.1831985 -0.20345135 2.2955
-1.1827867 -0.19490559 2.299
-1.1827867 -0.18826108 2.299
-1.1796998 -0.18335164 2.293
-1.1783484 -0.17497206 2.299
-1.2135686 -0.16586801 2.2956667
-1.2052075 -0.16553468 2.2909999
-1.1807288 -0.16140173 2.2950001
-1.1783484 -0.16611272 2.299
-1.2106863 -0.15463391 2.293
-1.2005396 -0.1528237 2.299
-1.1947126 -0.15707096 2.2963333
-1.1843684 -0.15559441 2.2963333
-1.2122703 -0.14598554 2.296
-1.2014483 -0.14602265 2.2965
-1.2133263 -0.13947399 2.2980001
-1.2026248 -0.13500707 2.2973335
-1.2020955 -0.12315124 2.2963333
-1.2211351 -0.11280925 2.296
-1.2145829 -0.11482177 2.2919998
-1.2028735 -0.11718208 2.2950001
-1.1979285 -0.11271098 2.2939999
-1.2228986 -0.10594219 2.2909999
-1.2005396 -0.10409731 2.299
-1.1979285 -0.10829094 2.2939999
-1.2316072 -0.090808287 2.299
-1.2236104 -0.094963066 2.2923334
-1.2005396 -0.095237963 2.299
-1.2273214 -0.086078033 2.2909999
-1.2028813 -0.084013492 2.2950001
-1.2355077 -0.077485554 2.2980001
-1.225443 -0.075844251 2.293
-1.2014483 -0.075220138 2.2965
-1.2355077 -0.066417143 2.2979999
-1.2239662 -0.066271678 2.293
-1.2005396 -0.066445082 2.299
-1.1936336 -0.22731183 2.3056667
-1.1845723 -0.22598052 2.3041999
-1.1833524 -0.21580732 2.3025715
-1.1818794 -0.20485838 2.303
-1.1742393 -0.20420808 2.3039999
-1.1809112 -0.19532947 2.3039999
-1.1742394 -0.19532947 2.3039999
-1.1809112 -0.18867052 2.3039999
-1.1752661 -0.18595895 2.3033998
-1.1742393 -0.17535259 2.3039999
-1.1675675 -0.17535259 2.3039999
-1.1753687 -0.16378227 2.3035998
-1.1964787 -0.15315606 2.3039999
-1.1829051 -0.15470231 2.3050001
-1.2021062 -0.14415222 2.302
-1.1964787 -0.1464971 2.3039999
-1.1857008 -0.14654014 2.3046665
-1.1753658 -0.14302409 2.3076668
-1.2023673 -0.13753036 2.3025
-1.1964787 -0.13539883 2.3039999
-1.185359 -0.13539883 2.3039999
-1.1751928 -0.13456973 2.3049998
-1.1964787 -0.12430057 2.3039999
-1.185359 -0.12430058 2.3039999
-1.1777399 -0.12443786 2.3065
-1.1960886 -0.11538512 2.3032498
-1.185359 -0.11542197 2.3039999
-1.1777399 -0.1155448 2.3065
-1.1960886 -0.10650794 2.3032498
-1.1870703 -0.10706127 2.3055999
-1.2342857 -0.095445082 2.3039999
-1.1958207 -0.094833471 2.3045714
-1.1898069 -0.097664736 2.3039999
-1.2023673 -0.08429046 2.3025
-1.1969972 -0.08438246 2.3049998
-1.2365096 -0.07324855 2.3039999
-1.2021062 -0.077620424 2.302
-1.19722 -0.074728318 2.3039999
-1.2329464 -0.066517822 2.3015001
