# .PCD v0.7 - Point Cloud Data file format
VERSION 0.7
FIELDS x y z
SIZE 4 4 4
TYPE F F F
COUNT 1 1 1
WIDTH 117
HEIGHT 1
VIEWPOINT 0 0 0 1 0 0 0
POINTS 117
DATA ascii
0.078852803 -0.52467 2.4755001
0.078836873 -0.51502699 2.4749999
0.064842343 -0.54569751 2.4879999
0.05999035 -0.53408289 2.4860001
0.067114621 -0.53588462 2.4832499
0.076764718 -0.53631818 2.48525
0.067134172 -0.52886701 2.484
0.074368082 -0.52435905 2.4853332
0.083902031 -0.52636945 2.4835
0.065102316 -0.55110019 2.4979999
0.055346526 -0.54759252 2.493
0.060207527 -0.54563099 2.4949999
0.0747471 -0.54628706 2.4979999
0.060159266 -0.53558093 2.493
0.084358111 -0.53644603 2.497
0.067445457 -0.5265072 2.4955001
0.055657335 -0.56274664 2.507
0.062036037 -0.56368333 2.5039999
0.045904439 -0.5522033 2.503
0.052345883 -0.55542034 2.503
0.065154441 -0.55475277 2.5
0.072509646 -0.55483621 2.5039999
0.045904439 -0.5449692 2.503
0.052284431 -0.54351312 2.5
0.079633206 -0.5467245 2.5
0.086959943 -0.54486084 2.5025001
0.045904439 -0.53773504 2.503
0.053907979 -0.53562683 2.5006666
0.06037645 -0.52787864 2.5020001
0.065649614 -0.57029384 2.5190001
0.070428573 -0.56476688 2.516
0.075285718 -0.55991906 2.516
0.082554534 -0.55253804 2.5155001
0.089821436 -0.54031312 2.5150001
0.053376935 -0.53272498 2.5135002
0.063102797 -0.52567101 2.5145001
0.070316605 -0.52514839 2.5120001
0.053586394 -0.57131267 2.5235
0.061003864 -0.57720232 2.5280001
0.070596524 -0.57097304 2.5220001
0.046326254 -0.56214452 2.526
0.051101349 -0.56588918 2.5209999
0.075435326 -0.56588918 2.5209999
0.080333978 -0.56125432 2.5220001
0.041433398 -0.55705684 2.5250001
0.089999996 -0.54624277 2.52
0.066118725 -0.57925719 2.5369999
0.07582432 -0.57368976 2.5339999
0.083162159 -0.56636608 2.5339999
0.034292713 -0.55497903 2.53775
0.041597493 -0.55193353 2.5350001
0.085574321 -0.5588218 2.533
0.031860039 -0.54546916 2.539
0.041663129 -0.54546916 2.539
0.046454635 -0.53929961 2.533
0.051324327 -0.53420812 2.5320001
0.075734556 -0.52424371 2.5309999
0.051547296 -0.58062714 2.543
0.073638991 -0.58062714 2.543
0.046638031 -0.57082754 2.543
0.056389961 -0.57994217 2.54
0.031910233 -0.56102794 2.543
0.041745171 -0.56615025 2.5439999
0.036891893 -0.55231214 2.5480001
0.056500968 -0.53204721 2.5450001
0.061438225 -0.52735066 2.546
0.071212351 -0.52693641 2.5439999
0.056789577 -0.58898073 2.5580001
0.061727803 -0.58898073 2.5580001
0.044425678 -0.57643259 2.5570002
0.027149614 -0.56411654 2.5569999
0.027149614 -0.5567264 2.5569999
0.027149614 -0.54933619 2.5569999
0.034480214 -0.54569703 2.5515001
0.04186004 -0.54313201 2.5510001
0.032085907 -0.53948265 2.5569999
0.046784751 -0.53821677 2.5510001
0.066509657 -0.52859348 2.552
0.046968147 -0.584737 2.5610001
0.066744208 -0.58967149 2.5610001
0.032148648 -0.5701561 2.562
0.042024132 -0.57980251 2.5610001
0.037065636 -0.56971097 2.5599999
0.03713803 -0.54611272 2.5650001
0.042138997 -0.54180348 2.5680001
0.032236487 -0.53706455 2.569
0.047096528 -0.53685552 2.5680001
0.054472007 -0.53375435 2.5650001
0.076811776 -0.52675432 2.5669999
0.037304536 -0.59572494 2.5764999
0.044748068 -0.59549272 2.5754998
0.053874519 -0.59643537 2.576
0.06218629 -0.59832078 2.5769999
0.072052121 -0.59266472 2.5739999
0.034796331 -0.5854528 2.5749998
0.042237449 -0.58770519 2.5739999
0.027372587 -0.57371676 2.5780001
0.034796331 -0.57801056 2.5749998
0.01739189 -0.56538725 2.5739999
0.022361003 -0.56538725 2.5739999
0.022374034 -0.55579144 2.5755
0.027319498 -0.54533428 2.573
0.037224904 -0.54243642 2.5710001
0.042253863 -0.53831887 2.575
0.052175675 -0.53315026 2.5739999
0.073699169 -0.52481407 2.5736666
0.081990346 -0.52323121 2.5739999
0.032374516 -0.59404624 2.5799999
0.022413127 -0.57416183 2.5799999
0.017479729 -0.56076586 2.5869999
0.022473937 -0.55079669 2.5869999
0.027468145 -0.54082751 2.5869999
0.034924228 -0.53781354 2.5844998
0.044938706 -0.53573942 2.5864999
0.054915056 -0.53065318 2.586
0.067369692 -0.53044796 2.585
0.062258687 -0.52942193 2.5799999
