# .PCD v0.7 - Point Cloud Data file format
VERSION 0.7
FIELDS x y z
SIZE 4 4 4
TYPE F F F
COUNT 1 1 1
WIDTH 316
HEIGHT 1
VIEWPOINT 0 0 0 1 0 0 0
POINTS 316
DATA ascii
0.36622101 -0.60558766 2.2449999
0.37055501 -0.60342485 2.2449999
0.36660168 -0.59538919 2.2473333
0.28629923 -0.55417341 2.247
0.27979055 -0.54767919 2.247
0.37488028 -0.70263386 2.2579999
0.36632431 -0.6964162 2.2590001
0.37504634 -0.6964162 2.2590001
0.3815034 -0.69626153 2.2585001
0.34451929 -0.68553466 2.2590001
0.35542181 -0.6855346 2.2590001
0.36588821 -0.68640524 2.2590001
0.37431952 -0.68843645 2.2590001
0.38368291 -0.68973458 2.2585001
0.33579728 -0.67465323 2.2590001
0.34379247 -0.67537862 2.2590001
0.35542178 -0.67465323 2.2590001
0.36414382 -0.67682952 2.2590001
0.32489479 -0.66594797 2.2590001
0.33579731 -0.66594803 2.2590001
0.34436584 -0.66565222 2.2579999
0.35542178 -0.66594797 2.2590001
0.31471911 -0.65651739 2.2590001
0.32663921 -0.65680754 2.2590001
0.33579731 -0.65506649 2.2590001
0.34451929 -0.65506649 2.2590001
0.35542184 -0.65506649 2.2590001
0.36309606 -0.65535402 2.2525001
0.29436776 -0.64418501 2.2590001
0.31617278 -0.64418495 2.2590001
0.32925579 -0.64418495 2.2590001
0.33579728 -0.64418495 2.2590001
0.34451932 -0.64418495 2.2590001
0.35542178 -0.64418501 2.2590001
0.3637408 -0.64346963 2.2565
0.28346527 -0.63547981 2.2590001
0.29436776 -0.63547975 2.2590001
0.30527025 -0.63547981 2.2590001
0.31399226 -0.63547981 2.2590001
0.32489479 -0.63547975 2.2590001
0.33579731 -0.63547975 2.2590001
0.34451932 -0.63547975 2.2590001
0.35542181 -0.63547975 2.2590001
0.365798 -0.63456619 2.2557502
0.26602122 -0.62459826 2.2590001
0.27474326 -0.62459826 2.2590001
0.28346527 -0.62459826 2.2590001
0.29436776 -0.62459826 2.2590001
0.30527025 -0.62459826 2.2590001
0.31399226 -0.62459826 2.2590001
0.32489479 -0.62459826 2.2590001
0.33579728 -0.62459826 2.2590001
0.34451929 -0.62459826 2.2590001
0.35542181 -0.62459826 2.2590001
0.36466601 -0.62471193 2.2555001
0.25947973 -0.61371678 2.2590001
0.26602125 -0.61589307 2.2590001
0.27401641 -0.61444217 2.2590001
0.28346527 -0.61589307 2.2590001
0.29523996 -0.61415207 2.2590001
0.30454341 -0.61444217 2.2590001
0.31399226 -0.61589307 2.2590001
0.32598504 -0.61480492 2.2590001
0.33579728 -0.61371678 2.2590001
0.34451932 -0.61371678 2.2590001
0.35542178 -0.61371678 2.2590001
0.36301547 -0.61398458 2.2520001
0.32780215 -0.60428613 2.2590001
0.33579728 -0.60501158 2.2590001
0.34451932 -0.60501158 2.2590001
0.35542178 -0.60501152 2.2590001
0.36376771 -0.60655624 2.2566669
0.32925579 -0.59630638 2.2590001
0.33579731 -0.59630638 2.2590001
0.34451932 -0.59630638 2.2590001
0.35542178 -0.59630638 2.2590001
0.36414382 -0.59630638 2.2590001
0.3270753 -0.5854249 2.2590001
0.33579731 -0.5854249 2.2590001
0.34451929 -0.5854249 2.2590001
0.35542181 -0.5854249 2.2590001
0.36626995 -0.58533788 2.2586668
0.27655599 -0.57160693 2.256
0.28334075 -0.57211369 2.2579999
0.3270753 -0.57454336 2.2590001
0.33579728 -0.57454336 2.2590001
0.34451932 -0.57454336 2.2590001
0.35542178 -0.57454342 2.2590001
0.36632431 -0.57454336 2.2590001
0.28750822 -0.56738585 2.2565
0.29582143 -0.56656361 2.2590001
0.30308977 -0.56583816 2.2590001
0.3270753 -0.56583816 2.2590001
0.33579728 -0.56583816 2.2590001
0.34451932 -0.56583816 2.2590001
0.35542178 -0.56583816 2.2590001
0.36632431 -0.56583816 2.2590001
0.29291412 -0.55495667 2.2590001
0.30483416 -0.55408615 2.2590001
0.31399226 -0.55060405 2.2590001
0.32925579 -0.55495667 2.2590001
0.33579731 -0.55495667 2.2590001
0.34451929 -0.55495667 2.2590001
0.35542181 -0.55495667 2.2590001
0.36523408 -0.55604482 2.2590001
0.28385487 -0.54705238 2.2563334
0.29000676 -0.54625148 2.2590001
0.30527025 -0.54407513 2.2590001
0.31399226 -0.54407513 2.2590001
0.32925579 -0.54407513 2.2590001
0.33579728 -0.54407513 2.2590001
0.34451932 -0.54407519 2.2590001
0.3552098 -0.54375434 2.2576666
0.30454341 -0.53609538 2.2590001
0.31181177 -0.53754628 2.2590001
0.3379778 -0.53536999 2.2590001
0.34451932 -0.53536993 2.2590001
0.35324132 -0.53536993 2.2590001
0.3466998 -0.52884108 2.2590001
0.35433155 -0.52557659 2.2590001
0.3379778 -0.51143062 2.2590001
0.34524617 -0.51288152 2.2590001
0.3553687 -0.51353079 2.2586668
0.3379778 -0.50707805 2.2590001
0.3466998 -0.50490177 2.2590001
0.35542178 -0.50490177 2.2590001
0.36414382 -0.50272542 2.2590001
0.33652413 -0.49547112 2.2590001
0.34451932 -0.49619657 2.2590001
0.35542181 -0.49619654 2.2590001
0.36398262 -0.49597785 2.2579999
0.33579731 -0.48966765 2.2590001
0.34451932 -0.48531508 2.2590001
0.35542181 -0.48531505 2.2590001
0.36392888 -0.48502859 2.2576666
0.35542181 -0.47443351 2.2590001
0.36366025 -0.47597688 2.256
0.35433158 -0.46681648 2.2590001
0.36366025 -0.43250868 2.256
0.36414382 -0.42873123 2.2590001
0.38680309 -0.70450097 2.2639999
0.30547345 -0.65114594 2.2605
0.31701255 -0.65680641 2.2650001
0.32343 -0.65433574 2.2639999
0.22694691 -0.64602184 2.2679999
0.30547297 -0.64461315 2.2605
0.31263998 -0.64371389 2.2650001
0.32236969 -0.64421803 2.2616665
0.23403668 -0.63308001 2.266
0.238306 -0.62625724 2.2650001
0.25349712 -0.62161851 2.2639999
0.25624809 -0.61643356 2.2690001
0.26649421 -0.61262333 2.263
0.2771689 -0.61208189 2.2609999
0.28421816 -0.61316478 2.2650001
0.29064864 -0.612894 2.2639999
0.30758688 -0.61181116 2.26
0.31482625 -0.61316478 2.2650001
0.32364237 -0.61330009 2.2655001
0.27559555 -0.60906935 2.266
0.29788899 -0.60698622 2.2636669
0.30671978 -0.60716534 2.2643335
0.31736246 -0.60728955 2.2674999
0.32590154 -0.60906935 2.266
0.32582963 -0.59802067 2.2655001
0.30881178 -0.58364451 2.2690001
0.31538224 -0.58364451 2.2690001
0.32166892 -0.58313006 2.267
0.37385619 -0.58479673 2.2649999
0.29039189 -0.57312721 2.2620001
0.30653635 -0.57483202 2.263
0.31454825 -0.57774085 2.263
0.32110137 -0.57774085 2.263
0.3742688 -0.57670474 2.2674999
0.29899323 -0.56198168 2.2610002
0.30790445 -0.56449294 2.2623334
0.32532626 -0.56005204 2.2620001
0.37385619 -0.5629788 2.2649999
0.29749486 -0.5524618 2.2606668
0.32095948 -0.55133528 2.2620001
0.36932045 -0.55618495 2.2639999
0.28589863 -0.5423786 2.2609999
0.29343405 -0.54431182 2.2630002
0.32095948 -0.54479772 2.2620001
0.30785906 -0.53172064 2.2620001
0.31509104 -0.53527457 2.2616665
0.32539526 -0.53837907 2.2624998
0.33391216 -0.53802216 2.2609999
0.30335811 -0.52930921 2.2609999
0.33835185 -0.52724612 2.2614999
0.34482431 -0.52713096 2.2609999
0.35137162 -0.52495277 2.2609999
0.33857626 -0.51669651 2.263
0.33842665 -0.50339305 2.2620001
0.34249035 -0.50730252 2.26
0.34279343 -0.48595956 2.2620001
0.35589385 -0.46416765 2.2620001
0.3657558 -0.43937284 2.2690001
0.2159646 -0.68318367 2.2753334
0.23538487 -0.68415177 2.273
0.2339218 -0.67501098 2.2734001
0.2151081 -0.66379768 2.2739999
0.2325905 -0.66576946 2.2732499
0.20733589 -0.65474659 2.273
0.2151081 -0.65503472 2.2739999
0.23032093 -0.65679336 2.2725
0.31365219 -0.65455526 2.2723334
0.32690829 -0.65036708 2.273
0.20718211 -0.64518756 2.2753334
0.2151081 -0.64408088 2.2739999
0.22305886 -0.64306647 2.273
0.2153441 -0.63601637 2.2765
0.22410738 -0.63594633 2.2762501
0.23032093 -0.63489735 2.2725
0.23423167 -0.62677568 2.2764001
0.24667664 -0.62317628 2.2749999
0.25242278 -0.61779189 2.2739999
0.26778764 -0.61121964 2.2739999
0.28534746 -0.61121964 2.2739999
0.29167569 -0.61068213 2.2720001
0.31374422 -0.61095089 2.273
0.32252026 -0.61095089 2.273
0.26778764 -0.60683811 2.2739999
0.27659822 -0.60471362 2.27425
0.28562957 -0.6052435 2.2762501
0.29406226 -0.604514 2.2735
0.30503523 -0.60341859 2.2735
0.31525353 -0.60373926 2.2733333
0.3223784 -0.60411561 2.2720001
0.27616024 -0.59585291 2.2766666
0.28352606 -0.59008956 2.277
0.29425725 -0.59614551 2.2750001
0.30510232 -0.59588438 2.2739999
0.31607723 -0.59588438 2.2739999
0.32237837 -0.59536123 2.2719998
0.27876255 -0.58712137 2.2739999
0.28534746 -0.5849306 2.2739999
0.2941916 -0.58506024 2.2745001
0.30361661 -0.58634824 2.2738333
0.31607723 -0.58931214 2.2739999
0.32223648 -0.58853465 2.2709999
0.27827221 -0.57952791 2.27
0.28484556 -0.57952791 2.27
0.29367423 -0.57746863 2.2704999
0.30237451 -0.57734102 2.27
0.31607723 -0.57397687 2.2739999
0.32223648 -0.57321966 2.2709999
0.31607723 -0.56521386 2.2739999
0.32230744 -0.564592 2.2715001
0.31566024 -0.5579046 2.2709999
0.32530114 -0.55669171 2.2720001
0.28754246 -0.54111558 2.2739999
0.2941274 -0.54111558 2.2739999
0.30071235 -0.54549712 2.2739999
0.32662064 -0.54477739 2.2709999
0.2876057 -0.53466046 2.2744999
0.29419208 -0.53466046 2.2744999
0.30071235 -0.53454334 2.2739999
0.31607723 -0.53235257 2.2739999
0.32485712 -0.53454334 2.2739999
0.33352628 -0.53436631 2.2732499
0.28754246 -0.52358955 2.2739999
0.29257432 -0.52474087 2.279
0.30510232 -0.52578038 2.2739999
0.31607723 -0.52578032 2.2739999
0.32485712 -0.52578032 2.2739999
0.33489421 -0.52525008 2.2736001
0.34582141 -0.52466512 2.2723334
0.35277027 -0.5226686 2.27
0.28650066 -0.51265705 2.2773333
0.30773628 -0.51570284 2.2739999
0.31607723 -0.51482654 2.2739999
0.32485715 -0.51482654 2.2739999
0.33356321 -0.51471335 2.2735
0.34400579 -0.51829481 2.27
0.28503409 -0.50534171 2.2773333
0.32558879 -0.50460309 2.2739999
0.33348939 -0.50365222 2.2729998
0.34400579 -0.50517339 2.27
0.28377509 -0.49839404 2.279
0.31883207 -0.49598074 2.2780001
0.32705212 -0.4951098 2.2739999
0.33085907 -0.49423891 2.27
0.31883207 -0.48720235 2.2780001
0.33560792 -0.4860259 2.2725
0.3485415 -0.48789304 2.2709999
0.30510232 -0.47101155 2.2739999
0.31897202 -0.47204721 2.279
0.33583203 -0.47977456 2.2739999
0.34439048 -0.47509086 2.2725556
0.30510232 -0.46443927 2.2739999
0.31310585 -0.46619236 2.279
0.3453365 -0.46467265 2.273
0.35535282 -0.46194366 2.2725
0.36161438 -0.46372399 2.2704999
0.305639 -0.45867246 2.2780001
0.36153474 -0.45487475 2.27
0.36153474 -0.44612718 2.27
0.36153474 -0.43519267 2.27
0.36153474 -0.42425817 2.27
0.34680694 -0.41624278 2.2739999
0.35558689 -0.41624278 2.2739999
0.34680697 -0.40528902 2.2739999
0.35558689 -0.40528902 2.2739999
0.34753859 -0.39506552 2.2739999
0.35558689 -0.39433524 2.2739999
0.2134749 -0.68751442 2.28
0.20953186 -0.64059252 2.2850001
0.20953186 -0.63618982 2.2850001
0.21816313 -0.63123411 2.283
0.2250666 -0.63206363 2.286
0.22747491 -0.6282081 2.2880001
0.24245802 -0.62257278 2.2835002
0.27962065 -0.59991616 2.2809999
0.28402412 -0.5471763 2.2809999
0.28427318 -0.51686418 2.283
