# .PCD v0.7 - Point Cloud Data file format
VERSION 0.7
FIELDS x y z
SIZE 4 4 4
TYPE F F F
COUNT 1 1 1
WIDTH 283
HEIGHT 1
VIEWPOINT 0 0 0 1 0 0 0
POINTS 283
DATA ascii
0.068044402 0.06572254 2.2739999
0.072434358 0.06572254 2.2739999
0.072434358 0.072294794 2.2739999
0.032924708 0.20373988 2.2739999
0.053973943 0.055760115 2.2889998
0.064074323 0.059540462 2.289
0.057445943 0.066156074 2.289
0.064074323 0.066156074 2.289
0.058182433 0.07424181 2.289
0.066283785 0.074976876 2.289
0.059655406 0.081592485 2.289
0.067020275 0.083062619 2.289
0.068493247 0.11467052 2.289
0.068493247 0.12349133 2.289
0.067020275 0.13304721 2.289
0.037560813 0.19626302 2.289
0.026513513 0.20508382 2.289
-0.0044478765 0.055491325 2.3039999
0.0044478765 0.055491328 2.3039999
0.013343629 0.055491325 2.3039999
0.024463322 0.055491328 2.3039999
0.035583008 0.055491328 2.3039999
0.043737452 0.058450866 2.3039999
-0.0044478765 0.066589594 2.3039999
0.0044478765 0.066589594 2.3039999
0.013343628 0.066589594 2.3039999
0.02446332 0.066589586 2.3039999
0.035583012 0.066589594 2.3039999
0.044478763 0.066589594 2.3039999
0.051150575 0.066589594 2.3039999
-0.0044478765 0.075468205 2.3039999
0.0044478765 0.075468205 2.3039999
0.013343628 0.075468205 2.3039999
0.02446332 0.075468205 2.3039999
0.035583012 0.075468205 2.3039999
0.044478763 0.075468205 2.3039999
0.0526332 0.076208092 2.3039999
-0.0044478765 0.084346816 2.3039999
0.0044478765 0.084346816 2.3039999
0.013343628 0.084346816 2.3039999
0.024463318 0.084346823 2.3039999
0.035583012 0.084346816 2.3039999
0.044478763 0.084346816 2.3039999
0.053374514 0.084346816 2.3039999
0.062270269 0.086566471 2.3039999
-0.0044478765 0.095445089 2.3039999
0.0044478765 0.095445089 2.3039999
0.013343629 0.095445089 2.3039999
0.024463322 0.095445089 2.3039999
0.035583012 0.095445089 2.3039999
0.044478763 0.095445089 2.3039999
0.05337451 0.095445089 2.3039999
0.0644942 0.095445089 2.3039999
-0.0044478765 0.10654335 2.3039999
0.0044478765 0.10654335 2.3039999
0.013343628 0.10654335 2.3039999
0.024463318 0.10654334 2.3039999
0.035583012 0.10654335 2.3039999
0.044478763 0.10654335 2.3039999
0.053374514 0.10654335 2.3039999
0.0644942 0.10654334 2.3039999
-0.0044478765 0.11542196 2.3039999
0.013343628 0.11542197 2.3039999
0.02446332 0.11542195 2.3039999
0.035583012 0.11542196 2.3039999
0.044478763 0.11542196 2.3039999
0.053374514 0.11542196 2.3039999
0.062270269 0.11542197 2.3039999
-0.0044478765 0.12208092 2.3039999
0.014084942 0.12504046 2.3039999
0.02446332 0.12430057 2.3039999
0.035583012 0.12430058 2.3039999
0.044478763 0.12430057 2.3039999
0.053374514 0.12430057 2.3039999
0.062270269 0.12430058 2.3039999
-0.066718146 0.13761848 2.3039999
0.013343628 0.13539883 2.3039999
0.024463322 0.13539883 2.3039999
0.035583008 0.13539883 2.3039999
0.044478763 0.13539883 2.3039999
0.05337451 0.13539885 2.3039999
0.063001931 0.13611849 2.3036666
-0.064494208 0.14427745 2.3039999
0.0066718142 0.14427745 2.3039999
0.015567567 0.14427745 2.3039999
0.02446332 0.14538728 2.3039999
0.033359073 0.14427745 2.3039999
0.044478763 0.1464971 2.3039999
0.053374514 0.1464971 2.3039999
0.063604631 0.14694104 2.3039999
0.0066718142 0.15537572 2.3039999
0.015567567 0.15537572 2.3039999
0.022239381 0.1553757 2.3039999
0.042254824 0.15537572 2.3039999
0.055598453 0.15537572 2.3039999
0.0644942 0.15537572 2.3039999
-0.0022239382 0.16203468 2.3039999
0.0044478765 0.16203468 2.3039999
0.014084942 0.16351445 2.3039999
0.021498069 0.16351445 2.3039999
0.033359073 0.16203468 2.3039999
0.042254824 0.16425434 2.3039999
0.055598453 0.16425434 2.3039999
0.0644942 0.16425434 2.3039999
-0.0066718142 0.17535259 2.3039999
0.013343628 0.1753526 2.3039999
0.035583008 0.17535259 2.3039999
0.046702702 0.17757225 2.3039999
0.053819299 0.17624047 2.3039999
0.0644942 0.17535259 2.3039999
0.011119691 0.18423121 2.3039999
0.028911196 0.18645087 2.3039999
0.035583012 0.18645087 2.3039999
0.044478763 0.18645087 2.3039999
0.068942085 0.18423121 2.3039999
0.028911196 0.19532947 2.3039999
0.034841698 0.1945896 2.3039999
0.042245656 0.1952866 2.3034999
-0.051150575 0.20198843 2.3039999
0.014084942 0.20494796 2.3039999
0.023351349 0.20309825 2.3039999
0.015567567 0.21086705 2.3039999
-0.033576254 0.044682082 2.319
-0.035068531 0.054363195 2.319
-0.024622587 0.053618494 2.319
-0.013430502 0.053618494 2.319
-0.042529922 0.069257222 2.319
-0.035814673 0.06478902 2.319
-0.024622589 0.064789012 2.319
-0.013430502 0.06478902 2.319
-0.035814673 0.075959533 2.319
-0.024622587 0.075959533 2.319
-0.013430502 0.075959533 2.319
-0.042529922 0.082661852 2.319
-0.035814673 0.084895954 2.319
-0.024622587 0.084895961 2.319
-0.013430502 0.084895954 2.319
-0.076106176 0.096066475 2.319
-0.035814673 0.093832374 2.319
-0.024622587 0.093832374 2.319
-0.013430502 0.093832374 2.319
-0.0756585 0.10410925 2.319
-0.068271719 0.10500288 2.319
-0.033576254 0.10276878 2.319
-0.024622587 0.10500288 2.319
-0.013430502 0.10500288 2.319
-0.075360037 0.11691812 2.319
-0.067152515 0.11617342 2.319
-0.025517955 0.11662023 2.319
-0.013430502 0.11840752 2.319
0.0044768341 0.11617342 2.319
-0.073867761 0.12510982 2.319
-0.067152515 0.12510982 2.319
-0.054468144 0.12585454 2.319
-0.026861005 0.12510982 2.319
-0.015668919 0.12734394 2.319
-0.0044768341 0.12734394 2.319
0.0044768341 0.12510982 2.319
0.011192085 0.12287572 2.319
-0.064914092 0.13404624 2.319
-0.053722009 0.13404624 2.319
-0.026114866 0.13479094 2.319
-0.0044768341 0.13404624 2.319
0.0044768341 0.13404624 2.319
0.013430502 0.13181214 2.319
-0.060437258 0.14521676 2.319
-0.053722005 0.14298266 2.319
-0.042529922 0.14521676 2.319
-0.038053088 0.14521676 2.319
-0.026861005 0.14074856 2.319
-0.015668919 0.14521676 2.319
-0.0044768341 0.14521676 2.319
0.0040291506 0.14521676 2.319
0.012982818 0.14521676 2.319
0.024622587 0.14968497 2.319
0.036560807 0.14819556 2.319
-0.0044768341 0.15638728 2.319
0.002238417 0.15638728 2.319
0.011192085 0.15638728 2.319
0.029099422 0.15638728 2.319
0.035814673 0.15638728 2.319
0.046996623 0.15635404 2.3185
0.05148359 0.15638728 2.319
-0.0052229729 0.1660684 2.319
0.0044768341 0.16755781 2.319
0.011192085 0.16755781 2.319
0.027607143 0.1660684 2.319
0.036560807 0.1660684 2.319
0.047006756 0.1653237 2.319
0.05148359 0.1653237 2.319
-0.003730695 0.17351539 2.319
0.0044768341 0.17426011 2.319
0.011192085 0.17202601 2.319
0.024622587 0.17426012 2.319
0.044016089 0.17349069 2.3186667
0.05148359 0.17202601 2.319
-0.0044768341 0.18543065 2.319
0.0044768341 0.18543065 2.319
0.014548022 0.18652819 2.3187501
0.023343492 0.18479231 2.319
0.042529922 0.18096243 2.319
-0.060437258 0.19883525 2.319
-0.003730695 0.19734585 2.319
0.0044768341 0.19660115 2.319
0.013430502 0.19660115 2.319
0.02238417 0.19660115 2.319
-0.055960424 0.20330347 2.319
-0.003730695 0.20479287 2.319
0.0044768341 0.20553757 2.319
0.011192085 0.20330347 2.319
0.0044768341 0.21223989 2.319
0.011192085 0.21223989 2.319
-0.053318534 0.04422158 2.3340001
-0.045057915 0.044971101 2.3340001
-0.038299229 0.044971101 2.3340001
-0.051816605 0.053965323 2.3340001
-0.045057915 0.053965319 2.3340001
-0.038299229 0.051716767 2.3340001
-0.051816601 0.065208092 2.3340001
-0.045508496 0.064308666 2.3340001
-0.092368729 0.078699425 2.3340001
-0.085610047 0.076450869 2.3340001
-0.076598465 0.076450869 2.3340001
-0.068337835 0.07720039 2.3340001
-0.054069504 0.076450869 2.3340001
-0.045057915 0.076450869 2.3340001
-0.092368729 0.085445091 2.3340001
-0.085610047 0.085445091 2.3340001
-0.076598465 0.085445091 2.3340001
-0.065333985 0.085445084 2.3339999
-0.054069504 0.085445091 2.3340001
-0.045808882 0.086194612 2.3340001
-0.092368729 0.092190757 2.3340001
-0.085610047 0.094439313 2.3340001
-0.076598465 0.092190757 2.3340001
-0.060828187 0.094439313 2.3340001
-0.054069504 0.094439313 2.3340001
-0.045057915 0.094439313 2.3340001
-0.08561004 0.10343353 2.3340001
-0.062330116 0.10268401 2.3340001
-0.0540695 0.10343353 2.3340001
-0.045057915 0.10343353 2.3340001
-0.038299229 0.10343353 2.3340001
-0.083357148 0.11017919 2.3340001
-0.078851357 0.11242774 2.3340001
-0.061954632 0.11355203 2.3340001
-0.054069504 0.1146763 2.3339999
-0.045057919 0.1146763 2.3339999
-0.036046334 0.1146763 2.3339999
-0.060828187 0.12591907 2.3340001
-0.051816605 0.12367053 2.3340001
-0.045057915 0.12591907 2.3340001
-0.036046334 0.12591907 2.3340001
-0.060828187 0.13266474 2.3340001
-0.045057915 0.1349133 2.3340001
-0.036046334 0.1349133 2.3340001
-0.023279922 0.13416378 2.3340001
-0.045808882 0.143158 2.3340001
-0.035295367 0.143158 2.3340001
-0.023655405 0.14503179 2.3340001
-0.060828187 0.15739885 2.3340001
-0.054069504 0.15515029 2.3339999
-0.045057919 0.15515029 2.3339999
-0.036046334 0.15515029 2.3339999
-0.024781857 0.15515031 2.3339999
-0.060828187 0.16414452 2.3340001
-0.054069504 0.16639307 2.3340001
-0.045057915 0.16639307 2.3340001
-0.036046334 0.16639307 2.3340001
-0.024781855 0.16639307 2.3339999
-0.060828187 0.17763585 2.3340001
-0.053318534 0.17463778 2.3340001
-0.045057915 0.17538729 2.3340001
-0.036046334 0.17538729 2.3340001
-0.024781853 0.17538731 2.3339999
-0.036046334 0.18438151 2.3340001
-0.024781853 0.18438153 2.3339999
-0.060828187 0.19562429 2.3340001
-0.056322396 0.19562429 2.3340001
-0.022528958 0.19112718 2.3340001
-0.0540695 0.2001214 2.3340001
-0.038299229 0.20236996 2.3340001
-0.020280406 0.20241281 2.3345001
