# .PCD v0.7 - Point Cloud Data file format
VERSION 0.7
FIELDS x y z
SIZE 4 4 4
TYPE F F F
COUNT 1 1 1
WIDTH 243
HEIGHT 1
VIEWPOINT 0 0 0 1 0 0 0
POINTS 243
DATA ascii
0.19642182 -0.79093355 2.339
0.16321573 -0.79867101 2.3485
0.18365733 -0.79884106 2.349
0.093239382 -0.80576104 2.3559999
0.15704827 -0.80190176 2.358
0.17518629 -0.80156165 2.3569999
0.19362934 -0.79576105 2.3599999
0.19362934 -0.78894025 2.3599999
-0.0045622587 -0.81549954 2.3645
0.0022818535 -0.81305206 2.3640001
0.01370029 -0.81356788 2.3655
0.02512162 -0.81373984 2.3659999
0.036509655 -0.81305206 2.3640001
0.04802027 -0.81020713 2.369
0.0045656371 -0.80918109 2.3660002
0.011414093 -0.80883914 2.365
0.054799709 -0.80901015 2.3655
0.063945949 -0.80918109 2.3659999
0.070767373 -0.80883914 2.365
0.098078184 -0.8036021 2.3629999
0.10494353 -0.80377215 2.3635001
0.11406901 -0.80377215 2.3635001
0.12324663 -0.8041122 2.3645
0.13564499 -0.80273086 2.3658001
0.14535971 -0.802876 2.3653333
0.15294884 -0.80428225 2.365
0.17577703 -0.80428225 2.365
0.16439769 -0.79761517 2.3655
0.18723069 -0.79761511 2.3655
-0.020666989 -0.81821096 2.3789999
0.075587831 -0.81157511 2.3729999
0.082614377 -0.81311417 2.3775001
0.0068889959 -0.80904335 2.3789999
0.01148166 -0.80904335 2.3789999
0.094070464 -0.80836326 2.3770001
0.1305608 -0.80243063 2.3729999
0.14888513 -0.80243063 2.3729999
0.15811391 -0.80276883 2.3740001
0.17164576 -0.80175436 2.3710001
0.18110521 -0.80310696 2.375
0.13972297 -0.79785836 2.3729999
0.14430405 -0.79785836 2.3729999
0.15818051 -0.79853082 2.375
0.17171815 -0.79752213 2.372
0.18110521 -0.79853082 2.375
-0.020693051 -0.81465316 2.382
-0.013783785 -0.81855494 2.3800001
-0.0038314026 -0.81487799 2.3826668
0.016087838 -0.81201637 2.381
0.025270274 -0.81396919 2.3800001
0.036763996 -0.8141402 2.3805001
0.045996621 -0.81252646 2.3825002
0.089745179 -0.81533718 2.3840001
0.0038320462 -0.80700254 2.382
0.011496139 -0.80547398 2.382
0.055949163 -0.80853111 2.382
0.06435135 -0.80742872 2.381
0.071216218 -0.80938345 2.3800001
0.10824517 -0.80682659 2.3859999
0.11566345 -0.80349326 2.3806667
0.12410618 -0.80284101 2.381
0.13327076 -0.80038011 2.3805001
0.14938706 -0.8005482 2.381
0.15398359 -0.80284107 2.381
0.17700338 -0.80301011 2.3815
0.1241583 -0.79629481 2.382
0.1333552 -0.79629481 2.382
0.14415058 -0.79565704 2.3855999
0.15654054 -0.79729766 2.385
0.16621815 -0.79431921 2.3806667
0.17280406 -0.7979663 2.3870001
0.1860811 -0.79562622 2.3800001
0.19067569 -0.79562622 2.3800001
-0.013880551 -0.81738752 2.39675
-0.0053989701 -0.8152768 2.3973331
0.022347813 -0.81294507 2.3950002
0.030065635 -0.81482464 2.3959999
0.076240838 -0.8116653 2.3935001
0.080945946 -0.81482464 2.3959999
0.090234555 -0.81516474 2.3970001
0.013860522 -0.80705535 2.3934999
0.057818532 -0.80559146 2.3959999
0.064729735 -0.80525529 2.395
0.071635142 -0.80722255 2.3940001
0.11558977 -0.80294698 2.395
0.17808108 -0.80097491 2.3959999
0.13645174 -0.79635835 2.3959999
0.14576352 -0.7920723 2.3970001
0.15957914 -0.79635835 2.3959999
0.16379344 -0.79436421 2.3900001
0.17331082 -0.79569364 2.3940001
0.18224904 -0.79896921 2.3900001
0.025567567 -0.81426591 2.408
0.034835905 -0.81822538 2.4059999
0.044015445 -0.816185 2.4000001
0.053281855 -0.81156075 2.4000001
0.083551638 -0.81539643 2.4045
0.099987447 -0.81460404 2.4089999
0.10429054 -0.81189883 2.401
0.0069729728 -0.80962622 2.408
0.016270271 -0.80962622 2.408
0.053348459 -0.80794513 2.4030001
0.076670848 -0.80928999 2.4070001
0.1229334 -0.79868501 2.4030001
0.13215637 -0.7983526 2.402
0.14154826 -0.79438537 2.404
0.15318292 -0.79918355 2.4045
-0.014749677 -0.81429344 2.4126666
-0.0069845556 -0.81561846 2.4119999
0.0023281854 -0.81097108 2.4119999
0.020953668 -0.81097108 2.4119999
0.036094114 -0.81694841 2.4124999
0.04734588 -0.81418085 2.4123333
0.083884172 -0.81396914 2.414
0.093087837 -0.81528032 2.411
0.10965154 -0.81265223 2.4170001
0.058301155 -0.80766088 2.4159999
0.065189183 -0.80632371 2.4119999
0.072173744 -0.80632371 2.4119999
0.11650966 -0.80466282 2.414
0.12794402 -0.80101156 2.4100001
0.17934461 -0.80200869 2.4130001
0.18621573 -0.8015101 2.4115
0.19548649 -0.80134392 2.411
0.13776158 -0.79934198 2.4189999
0.1513948 -0.79735941 2.4130001
0.16293871 -0.79686368 2.4115
0.17023937 -0.79835063 2.4159999
-0.0023436293 -0.81635064 2.428
0.007030888 -0.81167245 2.428
0.014044401 -0.81066954 2.425
0.023415059 -0.81333911 2.4260001
0.03515444 -0.81635064 2.428
0.046882719 -0.81417871 2.4284999
0.053859077 -0.81100386 2.4260001
0.086535715 -0.81466961 2.4230001
0.093783781 -0.81668687 2.4289999
0.058614861 -0.80732656 2.4289999
0.06327799 -0.8069942 2.428
0.077148646 -0.80966663 2.4219999
0.15657046 -0.80000287 2.421
0.17562743 -0.80165517 2.4260001
0.18264961 -0.80165511 2.4260001
0.19460134 -0.8026464 2.4289999
0.18920851 -0.79967248 2.4200001
0.0023465252 -0.81267536 2.431
0.035214607 -0.81312108 2.4323332
0.044583976 -0.81267536 2.431
0.077690154 -0.81065023 2.4389999
0.082331084 -0.81468111 2.437
0.10345753 -0.81904042 2.4359999
0.0070482627 -0.80898845 2.434
0.011732626 -0.80799133 2.431
0.038367759 -0.80731374 2.4336667
0.046930499 -0.80564928 2.431
0.053970076 -0.80799133 2.431
0.068217181 -0.80998558 2.437
0.072802126 -0.8086561 2.4330001
0.13391699 -0.80429864 2.434
0.19038127 -0.79993737 2.4349999
-0.011780888 -0.82072157 2.441
-0.0070714285 -0.8210578 2.4419999
-0.0023629344 -0.81835836 2.448
0.0023600385 -0.81264448 2.4449999
0.016493242 -0.811315 2.441
0.024379989 -0.81399065 2.4443333
0.030680502 -0.81264448 2.4449999
0.085794397 -0.81465739 2.4463334
0.094401538 -0.81735545 2.4449999
0.11326109 -0.8148309 2.4445
0.033059362 -0.80842918 2.4464998
0.056585424 -0.80710745 2.4425001
0.063721038 -0.80793351 2.4449999
0.18659556 -0.80387956 2.447
0.19596332 -0.80355108 2.4460001
0.10193823 -0.82103276 2.4560001
-0.0023658301 -0.81463873 2.451
0.06874904 -0.81156844 2.4560001
0.078231663 -0.81156844 2.4560001
0.0948084 -0.81613439 2.4555001
0.1303861 -0.81156844 2.4560001
0.073310815 -0.80958575 2.45
-0.011882239 -0.82303852 2.4619999
-0.0071293432 -0.82303852 2.4619999
0.10689671 -0.82270426 2.461
-0.011896717 -0.81929189 2.4649999
-0.0071380306 -0.81929189 2.4649999
0.085552126 -0.81355101 2.4619999
0.092719115 -0.81388152 2.4630001
0.12630986 -0.81586421 2.4690001
0.10264383 -0.82195091 2.473
0.11237355 -0.82328033 2.477
-0.0047823358 -0.81834245 2.4765
0.059604246 -0.81143546 2.47
0.064372584 -0.81143546 2.47
0.088535719 -0.81439215 2.4790001
0.097830109 -0.81685543 2.4719999
0.1171554 -0.81850773 2.477
0.12169112 -0.81685543 2.4719999
0.10772201 -0.82427746 2.48
0.11291796 -0.82247305 2.4890001
0.036023166 -0.81734872 2.4879999
0.052782334 -0.81652749 2.4854999
0.084087841 -0.81767732 2.4890001
0.093660228 -0.81734872 2.4879999
0.10297587 -0.81982946 2.4809999
0.14619981 -0.81570619 2.483
0.045831084 -0.82096243 2.4990001
0.10679569 -0.82146722 2.4956667
0.1157138 -0.82046962 2.4974999
0.031257723 -0.81833428 2.4909999
0.069868729 -0.81997687 2.4960001
0.098661199 -0.81899136 2.493
0.14197586 -0.81899136 2.493
0.077359557 -0.82276928 2.5044999
0.12331564 -0.82293355 2.5050001
0.13776834 -0.82260501 2.5039999
0.15227027 -0.82260501 2.5039999
0.20085038 -0.8187601 2.507
0.11405212 -0.82104623 2.5139999
0.12845849 -0.82490462 2.5109999
0.13335907 -0.82523316 2.5120001
0.20416215 -0.81750095 2.5179999
0.11933108 -0.82398558 2.523
0.15873551 -0.83114642 2.53
0.16615975 -0.83163917 2.5314999
0.17345655 -0.8314749 2.5309999
0.092961878 -0.82774132 2.5345001
0.10264865 -0.82692486 2.5320001
0.11024132 -0.82888442 2.5380001
0.12498938 -0.829211 2.539
0.14425386 -0.82725143 2.533
0.18826351 -0.82237089 2.533
0.19559845 -0.82237089 2.533
0.086047292 -0.83182371 2.5469999
0.13275868 -0.83182371 2.5469999
0.14979149 -0.83084393 2.5439999
0.13974904 -0.82953757 2.54
0.081385136 -0.83443642 2.5550001
0.091321424 -0.83016276 2.5569999
0.095994204 -0.82789016 2.55
0.10337838 -0.82789016 2.55
0.11333543 -0.82870185 2.5525
