# .PCD v0.7 - Point Cloud Data file format
VERSION 0.7
FIELDS x y z
SIZE 4 4 4
TYPE F F F
COUNT 1 1 1
WIDTH 135
HEIGHT 1
VIEWPOINT 0 0 0 1 0 0 0
POINTS 135
DATA ascii
0.16158302 -0.066658966 2.2320001
0.14962211 -0.073585257 2.2465
0.15602316 -0.073535644 2.2449999
0.16245173 -0.071341038 2.244
0.15605743 -0.06706214 2.2455001
0.16259652 -0.06274952 2.2460001
0.14609364 -0.07181792 2.2590001
0.15481564 -0.064563587 2.2590001
0.14609364 -0.050054915 2.2590001
0.15481564 -0.052666474 2.2590001
0.16353765 -0.058760118 2.2590001
0.1499218 -0.041203275 2.2509999
0.15045464 -0.045702312 2.2590001
0.14179537 -0.071849711 2.26
0.14622296 -0.067525044 2.2609999
0.15052123 -0.063140653 2.26
0.14179537 -0.05007707 2.26
0.15342985 -0.057334617 2.26
0.14635232 -0.043600194 2.263
0.15741313 -0.045823701 2.2650001
0.1441789 -0.065011561 2.2746668
0.12840636 -0.053673409 2.2739999
0.13653995 -0.053897686 2.2742
0.14485255 -0.056953516 2.2737498
0.16009267 -0.054720618 2.2720001
0.12732263 -0.043819606 2.27425
0.13608879 -0.043815032 2.2739999
0.14267375 -0.043815028 2.2739999
0.068493247 -0.072771676 2.289
0.14764576 -0.076979771 2.283
0.12593919 -0.063950866 2.289
0.13364285 -0.065039501 2.2885001
0.11562838 -0.052189786 2.289
0.12327684 -0.056007318 2.2888
0.13465926 -0.059488438 2.2869999
0.10826351 -0.041898843 2.289
0.1148919 -0.044104047 2.289
0.12152027 -0.046309248 2.289
0.11268243 -0.037488438 2.289
0.13477702 -0.037488438 2.289
0.077331081 0.0066156071 2.289
0.086168922 0.0066156071 2.289
0.11268243 0.0066156071 2.289
0.083517566 0.014554335 2.289
0.095006756 0.011026012 2.289
0.12599421 -0.037504815 2.29
0.14392857 -0.037570328 2.2939999
0.062270269 -0.07324855 2.3039999
0.075597972 -0.073232651 2.3034999
0.12676448 -0.07324855 2.3039999
0.067459457 -0.067329474 2.3039999
0.075613894 -0.066589594 2.3039999
0.10897297 -0.066589594 2.3039999
0.11564478 -0.066589594 2.3039999
0.1237632 -0.067310207 2.3033333
0.13554247 -0.068749517 2.302
0.1400473 -0.068779379 2.303
0.077837832 -0.057710983 2.3039999
0.084509648 -0.055491328 2.3039999
0.093405403 -0.051052023 2.3039999
0.10600772 -0.054011557 2.3039999
0.11487001 -0.05843417 2.3033333
0.084509648 -0.044393063 2.3039999
0.093405403 -0.044393059 2.3039999
0.10362606 -0.044832945 2.3038001
0.12226351 -0.042155106 2.303
0.085250966 -0.034774568 2.3039999
0.093405403 -0.035514452 2.3039999
0.10452509 -0.035514448 2.3039999
0.11564478 -0.035514452 2.3039999
0.085250966 -0.02737572 2.3039999
0.093405403 -0.026635837 2.3039999
0.10452509 -0.026635835 2.3039999
0.11342084 -0.026635837 2.3039999
0.086733587 -0.017757226 2.3039999
0.093405403 -0.019976879 2.3039999
0.10541467 -0.018201157 2.3039999
0.11342084 -0.019976879 2.3039999
0.065383777 -0.0039953752 2.3039999
0.075613894 -0.004439306 2.3039999
0.084509648 -0.004439306 2.3039999
0.093405403 -0.004439306 2.3039999
0.10452509 -0.004439306 2.3039999
0.11342084 -0.004439306 2.3039999
0.0022239382 0.0066589592 2.3039999
0.026687257 0.0066589592 2.3039999
0.035583012 0.004439306 2.3039999
0.044478763 0.004439306 2.3039999
0.053374514 0.004439306 2.3039999
0.0644942 0.004439306 2.3039999
0.074872583 0.0036994219 2.3039999
0.083756424 0.0036984582 2.3036666
0.093395516 0.0044385837 2.30375
0.10452509 0.004439306 2.3039999
0.11636905 0.0036984582 2.3036666
0.1223166 0.002219653 2.3039999
0.066704154 0.011095857 2.3034999
0.055960424 -0.075959533 2.319
0.055960424 -0.069257222 2.319
0.063421816 -0.063299619 2.319
0.06939093 -0.055852599 2.319
0.06939093 -0.044682082 2.319
0.06939093 -0.03797977 2.319
-0.029099422 -0.020106936 2.319
0.047006756 -0.020106936 2.319
0.053722009 -0.020106936 2.319
0.066193186 -0.023936829 2.319
-0.029099422 -0.013404625 2.319
0.029099422 -0.01117052 2.319
0.045514479 -0.012659922 2.319
0.053722005 -0.013404625 2.319
0.064914092 -0.013404625 2.319
-0.05148359 -0.0022341041 2.319
-0.044022202 -0.0037235068 2.319
-0.035814673 -0.0044682082 2.319
-0.025517955 -0.0040213875 2.319
-0.0052229729 -0.0037235068 2.319
0.0052229729 -0.0037235068 2.319
0.013430502 -0.0044682082 2.319
0.024622587 -0.0044682082 2.319
0.035814673 -0.0044682082 2.319
0.044768341 -0.0044682082 2.319
0.053722009 -0.0044682082 2.319
0.060437258 -0.0067023123 2.319
-0.013430502 0.0044682082 2.319
-0.0044768341 0.0044682082 2.319
0.0052229729 0.0037235068 2.319
0.013430502 0.0044682082 2.319
0.023503378 0.0033511561 2.319
-0.035295367 -0.021736031 2.3340001
-0.044306953 -0.012741812 2.3340001
-0.036046334 -0.013491331 2.3340001
-0.063081086 -0.002248555 2.3340001
-0.0540695 -0.0044971099 2.3340001
-0.047310814 -0.0067456649 2.3340001
