# .PCD v0.7 - Point Cloud Data file format
VERSION 0.7
FIELDS x y z
SIZE 4 4 4
TYPE F F F
COUNT 1 1 1
WIDTH 315
HEIGHT 1
VIEWPOINT 0 0 0 1 0 0 0
POINTS 315
DATA ascii
-1.2869546 -0.92005301 2.335
-1.2784865 -0.92044699 2.336
-1.286679 -0.91310841 2.3345001
-1.2906853 -0.93049127 2.3499999
-1.2816119 -0.93049127 2.3499999
-1.274807 -0.93275529 2.3499999
-1.2664896 -0.93200058 2.3499999
-1.2901361 -0.92104334 2.349
-1.2846035 -0.92340386 2.3492498
-1.274807 -0.92369938 2.3499999
-1.2680019 -0.92596334 2.3499999
-1.2920145 -0.91375881 2.3496666
-1.2838802 -0.91464353 2.3499999
-1.2770753 -0.91690749 2.3499999
-1.2929536 -0.90558767 2.3499999
-1.2861485 -0.90785158 2.3499999
-1.2929536 -0.8965317 2.3499999
-1.2952219 -0.88973987 2.3499999
-1.2872432 -0.93128324 2.352
-1.2528957 -0.89579958 2.3599999
-1.249558 -0.89731216 2.358
-1.2704546 -0.94019169 2.3629999
-1.2665606 -0.93271649 2.3642502
-1.2746413 -0.92419147 2.3640001
-1.2652161 -0.92542964 2.3659999
-1.2837688 -0.91508168 2.3639998
-1.2743514 -0.9163121 2.3659999
-1.2652161 -0.9163121 2.3659999
-1.2594286 -0.9102428 2.368
-1.2916639 -0.90424395 2.3642499
-1.2843874 -0.9055115 2.3658574
-1.2743514 -0.90491527 2.3659999
-1.2652161 -0.90491515 2.3659999
-1.2583648 -0.90491521 2.3659999
-1.302387 -0.89010882 2.3629999
-1.2941219 -0.89395374 2.3645713
-1.2834864 -0.89351827 2.3659999
-1.2743514 -0.89351827 2.3659999
-1.2652161 -0.89579767 2.3659999
-1.257567 -0.89295036 2.3645
-1.3040406 -0.88440073 2.3659999
-1.2949053 -0.88440078 2.3659999
-1.2834864 -0.88440073 2.3659999
-1.2766351 -0.88668013 2.3659999
-1.3040406 -0.87528324 2.3659999
-1.2958189 -0.8757391 2.3659999
-1.2857702 -0.87756258 2.3659999
-1.3032503 -0.86437052 2.3673332
-1.2979504 -0.86692548 2.3659999
-1.3040406 -0.85476875 2.3659999
-1.2994729 -0.85248935 2.3659999
-1.2744642 -0.94655776 2.3789999
-1.2693379 -0.94157803 2.378
-1.2636834 -0.93392003 2.3759999
-1.2639494 -0.92495811 2.3765001
-1.2631515 -0.91750962 2.375
-1.2596265 -0.91370237 2.3770001
-1.2565652 -0.90453982 2.3769999
-1.2725892 -0.89252555 2.3755
-1.2682703 -0.89500576 2.3759999
-1.256447 -0.89312238 2.3710001
-1.277583 -0.88664353 2.372
-1.2937171 -0.8747986 2.375
-1.2863469 -0.87879431 2.3755
-1.301473 -0.86368597 2.378
-1.2978084 -0.86735499 2.3755
-1.299831 -0.85802025 2.375
-1.2668746 -0.94316185 2.382
-1.2247307 -0.94434971 2.385
-1.2193552 -0.94553757 2.388
-1.2625411 -0.93647444 2.3824999
-1.2619184 -0.92423552 2.3835001
-1.2587336 -0.92557997 2.3840001
-1.2424054 -0.92253178 2.388
-1.2382795 -0.9257673 2.3845
-1.2603176 -0.91294706 2.3870001
-1.2587336 -0.9163931 2.3840001
-1.2244778 -0.90450573 2.3889999
-1.2714729 -0.89267629 2.382
-1.2690018 -0.89417529 2.3859999
-1.2571496 -0.89688921 2.381
-1.2475376 -0.8999027 2.3889999
-1.2208899 -0.89726591 2.382
-1.218334 -0.8987726 2.3859999
-1.2853523 -0.88460988 2.385
-1.2944652 -0.87431788 2.382
-1.2889166 -0.87523556 2.3845
-1.3012451 -0.86659151 2.3859999
-1.2960224 -0.86426365 2.38275
-1.2898668 -0.86513871 2.382
-1.3027793 -0.85586256 2.3859999
-1.2944652 -0.85366476 2.382
-1.2898668 -0.85366476 2.382
-1.2337201 -0.95642775 2.398
-1.2255019 -0.9540661 2.3940001
-1.2712847 -0.94989306 2.3989999
-1.2640135 -0.9433006 2.3940001
-1.2476081 -0.94025624 2.398
-1.2360256 -0.94540799 2.3934999
-1.2624296 -0.93520808 2.391
-1.25403 -0.93062717 2.3969998
-1.2443295 -0.93279439 2.3946667
-1.2368002 -0.93446529 2.395
-1.2604439 -0.92562234 2.3959999
-1.2553097 -0.92500496 2.3967998
-1.242695 -0.92445958 2.3930001
-1.2360348 -0.92177457 2.398
-1.2290907 -0.92177457 2.398
-1.2614962 -0.9125337 2.398
-1.2560776 -0.91580844 2.3964999
-1.2467409 -0.91651344 2.3963335
-1.2360348 -0.91484392 2.398
-1.2267761 -0.91484392 2.398
-1.2614962 -0.90791327 2.398
-1.2556851 -0.90475553 2.39575
-1.244513 -0.905038 2.3964999
-1.2335857 -0.90380943 2.39325
-1.2213976 -0.90564162 2.392
-1.2814286 -0.89181501 2.392
-1.2734295 -0.89268494 2.3943331
-1.2647756 -0.89652455 2.3971999
-1.2545521 -0.89636225 2.398
-1.2452934 -0.8963623 2.398
-1.2383494 -0.89636225 2.398
-1.2848593 -0.88300896 2.39625
-1.2730695 -0.88019073 2.398
-1.2545521 -0.88712132 2.398
-1.2476081 -0.8894316 2.398
-1.2901245 -0.87301445 2.391
-1.2843202 -0.87535012 2.3974001
-1.2730695 -0.87326014 2.398
-1.2917433 -0.86488444 2.3940001
-1.2862903 -0.86536098 2.3953333
-1.3124189 -0.85708863 2.398
-1.289585 -0.85883433 2.3900001
-1.2719333 -0.95385259 2.4089999
-1.2239015 -0.95266467 2.4059999
-1.2639074 -0.94378519 2.4070001
-1.2551095 -0.94473171 2.4035001
-1.2464762 -0.9452194 2.4047501
-1.2352592 -0.94569874 2.404
-1.2104701 -0.94378519 2.4070001
-1.2625483 -0.93641621 2.4000001
-1.2579151 -0.93641621 2.4000001
-1.2388649 -0.9348979 2.408
-1.2268927 -0.93520153 2.4064002
-1.2156197 -0.93953753 2.408
-1.2414479 -0.9287129 2.404
-1.2344866 -0.9287129 2.404
-1.2252009 -0.92408097 2.404
-1.2117834 -0.92678326 2.405
-1.2016757 -0.92097878 2.408
-1.1635194 -0.92716861 2.4060001
-1.2450521 -0.91637194 2.402
-1.2209954 -0.91455936 2.4033334
-1.2158237 -0.91686708 2.4053333
-1.2011766 -0.91595858 2.4070001
-1.1556689 -0.91207802 2.4089999
-1.2347448 -0.90110838 2.4045
-1.2206564 -0.90659219 2.4026668
-1.1532702 -0.90555298 2.404
-1.285002 -0.89128619 2.4030001
-1.2754581 -0.8911007 2.4025002
-1.2661819 -0.8911007 2.4025002
-1.2429898 -0.89110065 2.4025002
-1.2388649 -0.89546144 2.408
-1.2259933 -0.89979672 2.401
-1.2844672 -0.88628709 2.402
-1.2749271 -0.88610262 2.4015
-1.265262 -0.88402402 2.4033999
-1.2543519 -0.88331068 2.4064999
-1.2484055 -0.88702512 2.404
-1.2914227 -0.87240267 2.402
-1.2867857 -0.87240267 2.402
-1.2692934 -0.87544513 2.404
-1.2935733 -0.8692196 2.4059999
-1.2894644 -0.86958092 2.4070001
-1.2752767 -0.96256518 2.4153333
-1.262669 -0.96243316 2.415
-1.2549001 -0.96147835 2.4165001
-1.116819 -0.96340704 2.4154999
-1.2771139 -0.95889211 2.4100001
-1.266185 -0.95397186 2.414
-1.2536023 -0.95583236 2.414
-1.2450627 -0.95928997 2.411
-1.2305144 -0.95315123 2.4189999
-1.2253696 -0.95622706 2.415
-1.2175777 -0.9521662 2.4165001
-1.1473523 -0.95286351 2.4143333
-1.1347665 -0.95350677 2.4139998
-1.1259122 -0.95390171 2.415
-1.1165879 -0.95622832 2.415
-1.2419517 -0.94187862 2.414
-1.2335607 -0.94652987 2.414
-1.2233108 -0.94652987 2.414
-1.217641 -0.94342101 2.4120002
-1.207 -0.94420421 2.414
-1.1865202 -0.94226879 2.415
-1.1743784 -0.94187862 2.414
-1.1650579 -0.94187862 2.414
-1.1557374 -0.94187862 2.414
-1.1464169 -0.94420421 2.414
-1.1305743 -0.94692194 2.415
-1.1263783 -0.94731402 2.4159999
-1.1049334 -0.94226873 2.415
-1.0951545 -0.94187862 2.414
-1.0881641 -0.94187862 2.414
-1.2445464 -0.93567443 2.4100001
-1.2362664 -0.93645084 2.4119999
-1.2238507 -0.93335134 2.4119999
-1.2163205 -0.93722737 2.414
-1.207499 -0.93528903 2.415
-1.1836989 -0.93490177 2.414
-1.1743784 -0.93490171 2.414
-1.1642812 -0.93567687 2.414
-1.1557374 -0.93490171 2.414
-1.1464169 -0.93490177 2.414
-1.1051626 -0.93780971 2.4155002
-1.095834 -0.93548119 2.4154999
-1.0841742 -0.93780971 2.4155002
-1.2212838 -0.92406553 2.4100001
-1.2139903 -0.92327362 2.414
-1.2050676 -0.9263711 2.4147999
-1.1909359 -0.92579043 2.4145
-1.1829222 -0.92637444 2.414
-1.1743784 -0.92559922 2.414
-1.1642812 -0.924824 2.414
-1.1557374 -0.92559922 2.414
-1.1464169 -0.92559922 2.414
-1.2155437 -0.91552156 2.414
-1.2043074 -0.91506189 2.4148333
-1.1909359 -0.91648698 2.4145
-1.1829221 -0.91552156 2.414
-1.1743784 -0.91629678 2.414
-1.1650579 -0.91629678 2.414
-1.1549608 -0.917072 2.414
-1.1464169 -0.91629678 2.414
-1.135354 -0.91327918 2.4152501
-1.2349615 -0.90001738 2.414
-1.2266545 -0.9030906 2.4159999
-1.2155437 -0.90776944 2.414
-1.2052524 -0.90408725 2.4139998
-1.1931431 -0.90476179 2.4142499
-1.1837804 -0.9047308 2.4141665
-1.1743784 -0.90699422 2.414
-1.1646882 -0.90567338 2.4141998
-1.1552713 -0.90373838 2.414
-1.1457555 -0.90493631 2.4147143
-1.136632 -0.90336674 2.4146667
-1.2447963 -0.89108378 2.415
-1.2345252 -0.89406163 2.4146667
-1.2258778 -0.89455557 2.4160001
-1.2067223 -0.89418525 2.415
-1.1838212 -0.89313322 2.4142499
-1.1743784 -0.89071482 2.414
-1.1644417 -0.89238888 2.4143333
-1.1557645 -0.89513052 2.4165001
-1.2657752 -0.88177747 2.4150002
-1.2523088 -0.88679767 2.4159999
-1.2245777 -0.88465369 2.4165001
-1.210332 -0.88214254 2.4159999
-1.1845566 -0.88573343 2.4173334
-1.175109 -0.88428563 2.4155002
-1.1655782 -0.8861835 2.4175
-1.2688838 -0.87557387 2.4150002
-1.2211747 -0.87857705 2.4189999
-1.2136091 -0.87450314 2.4163334
-1.2077495 -0.87730587 2.4154999
-1.1725338 -0.87712425 2.415
-1.2093301 -0.86745858 2.414
-1.2809093 -0.96993262 2.4260001
-1.2655506 -0.96893299 2.4235001
-1.2195221 -0.96018785 2.425
-1.152554 -0.96366662 2.4219999
-1.1432027 -0.96366662 2.4219999
-1.1364233 -0.96386564 2.4225001
-1.1273031 -0.96639889 2.4230001
-1.1151487 -0.9683333 2.4219999
-1.2216796 -0.95820814 2.4200001
-1.2163436 -0.95669746 2.428
-1.2091613 -0.95472741 2.4230001
-1.1577076 -0.95005882 2.4230001
-1.1478783 -0.95899999 2.4219999
-1.1245 -0.95666766 2.4219999
-1.2052293 -0.94363916 2.4245
-1.1980878 -0.94539112 2.4289999
-1.1852838 -0.94499999 2.4219999
-1.1735946 -0.94966662 2.4219999
-1.166581 -0.94966662 2.4219999
-1.1432027 -0.94966662 2.4219999
-1.1369685 -0.94655555 2.4219999
-1.1291757 -0.94499999 2.4219999
-1.2049807 -0.93643934 2.424
-1.196973 -0.93333328 2.4219999
-1.1963575 -0.92334843 2.4223335
-1.1894681 -0.92595088 2.421
-1.1993108 -0.9146657 2.4219999
-1.2170078 -0.90225434 2.4200001
-1.1936487 -0.90225434 2.4200001
-1.1796333 -0.90225434 2.4200001
-1.2426732 -0.89224899 2.4245
-1.233058 -0.89206553 2.424
-1.2029923 -0.89759153 2.4200001
-1.1988156 -0.89796245 2.421
-1.2658147 -0.88039309 2.424
-1.2554189 -0.88588828 2.4220002
-1.2465822 -0.8893671 2.4230001
-1.2081631 -0.88863295 2.421
-1.2694459 -0.875 2.4219999
-1.2263514 -0.87894028 2.4200001
-1.2772918 -0.98286098 2.431
-1.2647771 -0.98286098 2.431
-1.2772918 -0.97505426 2.431
-1.2671236 -0.97661561 2.431
-1.2062377 -0.95563608 2.4312499
