# .PCD v0.7 - Point Cloud Data file format
VERSION 0.7
FIELDS x y z
SIZE 4 4 4
TYPE F F F
COUNT 1 1 1
WIDTH 294
HEIGHT 1
VIEWPOINT 0 0 0 1 0 0 0
POINTS 294
DATA ascii
-0.55602801 0.023939308 2.2590001
-0.56765741 0.052956652 2.2590001
-0.57347202 0.063112721 2.2590001
-0.56911105 0.063112721 2.2590001
-0.57565254 0.080523126 2.2590001
-0.56772536 0.086842485 2.2535
-0.56772536 0.095521674 2.2535
-0.56709552 0.10409248 2.2509999
-0.56709552 0.11493545 2.2509999
-0.57118726 0.12789017 2.25
-0.56810331 0.12600578 2.2550001
-0.59547347 0.13665174 2.2515001
-0.58013225 0.13662139 2.2509999
-0.57514095 0.1348131 2.257
-0.56911105 0.13493064 2.2590001
-0.5947938 0.1438918 2.2516668
-0.58516502 0.1432967 2.2536666
-0.57565254 0.14363584 2.2590001
-0.56693053 0.14363584 2.2590001
-0.61258543 0.15665944 2.2585001
-0.60611224 0.15667655 2.25875
-0.59527707 0.15451735 2.2590001
-0.58546484 0.1534292 2.2590001
-0.57783306 0.15016474 2.2590001
-0.56475002 0.15016474 2.2590001
-0.61490154 0.16539885 2.2590001
-0.60617959 0.16539885 2.2590001
-0.59550798 0.16624591 2.2557499
-0.58655506 0.16539885 2.2590001
-0.57783306 0.16757515 2.2590001
-0.62459713 0.17357746 2.2577999
-0.61480945 0.17459987 2.256
-0.58456367 0.17712782 2.2513335
-0.57553089 0.17557803 2.25
-0.58424473 0.18059295 2.2585001
-0.55483395 0.026924856 2.266
-0.54639214 0.026174616 2.26425
-0.56187743 0.034913298 2.2650001
-0.56187743 0.043641619 2.2650001
-0.57062262 0.054552026 2.2650001
-0.56406373 0.054552026 2.2650001
-0.57936782 0.067644514 2.2650001
-0.56625003 0.063280351 2.2650001
-0.57936782 0.074190758 2.2650001
-0.57062262 0.080736995 2.2650001
-0.56625003 0.085101157 2.2650001
-0.56625003 0.098193645 2.2650001
-0.56625003 0.10473989 2.2650001
-0.56625003 0.11346821 2.2650001
-0.56625003 0.12437862 2.2650001
-0.65370178 0.13747111 2.2650001
-0.64990252 0.13759248 2.267
-0.56625003 0.13528903 2.2650001
-0.66215444 0.14613487 2.2639999
-0.65500939 0.14515871 2.2657499
-0.56187743 0.14401735 2.2650001
-0.62364382 0.15943256 2.267
-0.61803818 0.15693401 2.2625
-0.59493434 0.15936224 2.266
-0.58374035 0.15492775 2.2650001
-0.57306087 0.15063006 2.266
-0.56187743 0.1505636 2.2650001
-0.66244692 0.16365607 2.2650001
-0.63044399 0.16764933 2.26
-0.62372261 0.16634233 2.2620001
-0.59335905 0.16329479 2.26
-0.58348262 0.16576108 2.2639999
-0.57611102 0.16501446 2.2636669
-0.57448745 0.17223218 2.263
-0.57911193 0.18103275 2.2639999
-0.54216021 0.026289016 2.2739999
-0.53449094 0.025861463 2.2750001
-0.52992088 0.028529866 2.2780001
-0.5553301 0.03505202 2.2739999
-0.54435515 0.03505202 2.2739999
-0.53557527 0.03505202 2.2739999
-0.52584594 0.035514839 2.2756
-0.55533004 0.043815032 2.2739999
-0.54435515 0.043815032 2.2739999
-0.53670108 0.043118495 2.2756665
-0.52589166 0.043411367 2.2758002
-0.56441772 0.05699205 2.27525
-0.5553301 0.052578032 2.2739999
-0.54575074 0.053701106 2.27525
-0.57508492 0.067913294 2.2739999
-0.56372434 0.066218495 2.276
-0.57508492 0.074485548 2.2739999
-0.5645203 0.074540146 2.2756667
-0.56630504 0.084343933 2.2739999
-0.55645233 0.082847975 2.2750001
-0.54362351 0.082518302 2.2739999
-0.53709203 0.084100835 2.2773333
-0.56441772 0.096447252 2.27525
-0.55813563 0.094305873 2.2765
-0.54216021 0.09420231 2.2739999
-0.53755718 0.094357662 2.27775
-0.56411004 0.10515606 2.2739999
-0.55673045 0.10631046 2.27525
-0.54362351 0.10442582 2.2739999
-0.53449094 0.10476319 2.2750001
-0.52737212 0.10746484 2.2765
-0.56535041 0.11197399 2.279
-0.5628463 0.1258609 2.276
-0.52297735 0.1206238 2.2765
-0.64723456 0.13795665 2.273
-0.5625304 0.13597591 2.2765
-0.66917473 0.14452697 2.273
-0.65381658 0.14233622 2.273
-0.64751929 0.14458959 2.2739999
-0.56095076 0.14271195 2.279
-0.55764723 0.14681262 2.2744999
-0.676054 0.15335259 2.2739999
-0.66781086 0.15403725 2.2733333
-0.64447296 0.15533814 2.2709999
-0.63598359 0.15540653 2.2719998
-0.62840444 0.15698105 2.2736666
-0.58304793 0.15844154 2.2736666
-0.57495844 0.1576999 2.2735
-0.56539071 0.15669002 2.27475
-0.55813563 0.15132803 2.2765
-0.67094111 0.16466764 2.279
-0.66712791 0.16646002 2.2735
-0.63379151 0.16416186 2.2720001
-0.62995946 0.16430636 2.2739999
-0.57288992 0.16649711 2.2739999
-0.5666151 0.16548964 2.27525
-0.68293923 0.17314547 2.2750001
-0.67635137 0.17314547 2.2750001
-0.66654247 0.17452987 2.2739999
-0.5765183 0.17721675 2.2709999
-0.5678668 0.17478676 2.2773333
-0.52579367 0.026459299 2.2887502
-0.51701355 0.026462428 2.289
-0.52341318 0.033063587 2.2880001
-0.51701355 0.035283238 2.289
-0.53572583 0.046208091 2.2839999
-0.52364188 0.046309248 2.289
-0.51701355 0.044104047 2.289
-0.55605698 0.059462428 2.286
-0.5430851 0.056012135 2.289
-0.5351311 0.054247975 2.289
-0.52806079 0.052924857 2.289
-0.55457431 0.066156074 2.2889998
-0.55457431 0.074976884 2.2889998
-0.54426354 0.075711943 2.289
-0.53689867 0.077182084 2.289
-0.55433208 0.08596532 2.2880001
-0.54871333 0.085777454 2.283
-0.53395271 0.083062619 2.289
-0.52585131 0.083797693 2.289
-0.51480407 0.083356656 2.289
-0.5643822 0.090215802 2.2839999
-0.55453944 0.094817504 2.288857
-0.54577512 0.094575144 2.283
-0.53415346 0.094807133 2.2886002
-0.52806079 0.094823696 2.289
-0.55495799 0.10330492 2.2814999
-0.54871333 0.10777167 2.283
-0.52585137 0.10364451 2.289
-0.56405884 0.11523604 2.2856667
-0.55536079 0.1150919 2.2886002
-0.54470968 0.11420001 2.2884002
-0.53457242 0.11464596 2.2885001
-0.52651095 0.11538921 2.2886667
-0.56119692 0.12080925 2.28
-0.55467099 0.12503865 2.2871251
-0.54352701 0.12349133 2.289
-0.53434026 0.12341137 2.2874999
-0.52562165 0.12564163 2.2880001
-0.51922297 0.12128613 2.289
-0.5538736 0.13576068 2.2887142
-0.54352707 0.13451734 2.2889998
-0.53468925 0.13451736 2.2889998
-0.52585137 0.13451736 2.2889998
-0.55325443 0.14498614 2.2872
-0.54352707 0.14554337 2.289
-0.53468919 0.14554337 2.289
-0.52658784 0.14480829 2.289
-0.55359328 0.15477823 2.2886002
-0.54352701 0.15436417 2.289
-0.53468919 0.15656936 2.289
-0.52585137 0.15436417 2.289
-0.68360353 0.16423483 2.28825
-0.67711878 0.1651018 2.2850001
-0.56334341 0.16504312 2.2842498
-0.5567838 0.16097978 2.289
-0.52511483 0.16244991 2.289
-0.51922297 0.16318497 2.289
-0.5749054 0.17587669 2.2820001
-0.56472039 0.17709988 2.2883334
-0.5800724 0.18271196 2.2850001
-0.56891555 0.18267196 2.2845001
-0.51127702 0.02650867 2.293
-0.51127702 0.035344895 2.293
-0.51127702 0.044181116 2.293
-0.53341025 0.059644509 2.293
-0.52455693 0.053017341 2.293
-0.54692852 0.066300571 2.2939999
-0.53632724 0.066358387 2.296
-0.54249996 0.072930634 2.2939999
-0.53535491 0.07443513 2.2950001
-0.52302992 0.077418111 2.296
-0.51570368 0.086153179 2.293
-0.50685036 0.083944127 2.293
-0.52455693 0.094989397 2.293
-0.51261485 0.090808287 2.299
-0.50685036 0.090571292 2.293
-0.52234364 0.10603468 2.293
-0.52234364 0.11487091 2.293
-0.52013028 0.12591618 2.293
-0.51592857 0.12155105 2.2939999
-0.52013028 0.13475241 2.293
-0.52234364 0.14579768 2.293
-0.53620511 0.15259105 2.2955
-0.52035713 0.15249132 2.2939999
-0.51944977 0.15663776 2.29
-0.56021428 0.16575144 2.2939999
-0.55231857 0.16161272 2.2980001
-0.54692852 0.1613314 2.2939999
-0.53235519 0.16382658 2.2980001
-0.56021428 0.17238149 2.2939999
-0.57692087 0.18311176 2.29
-0.50638223 0.024435453 2.306
-0.51016605 0.035576109 2.3080001
-0.50928181 0.044393063 2.3039999
-0.49149033 0.044393063 2.3039999
-0.48704246 0.046612713 2.3039999
-0.5315212 0.059930634 2.3039999
-0.52441055 0.055523444 2.3053334
-0.51528764 0.05442775 2.306
-0.49149033 0.051052023 2.3039999
-0.48704246 0.051052023 2.3039999
-0.54486483 0.066589594 2.3039999
-0.5315212 0.066589594 2.3039999
-0.52530503 0.06553372 2.306
-0.5152123 0.067329474 2.3039999
-0.50705791 0.068809249 2.3039999
-0.5315212 0.075468205 2.3039999
-0.52484941 0.07324855 2.3039999
-0.51595366 0.075468205 2.3039999
-0.50705791 0.075468205 2.3039999
-0.50483394 0.084346816 2.3039999
-0.52254987 0.095431916 2.3036666
-0.51639843 0.096332945 2.3039999
-0.50567931 0.095436797 2.3038001
-0.49371427 0.097664736 2.3039999
-0.52239865 0.10871579 2.303
-0.51699489 0.10586641 2.3053334
-0.50690085 0.10296211 2.3066666
-0.52262545 0.1132023 2.3039999
-0.51907724 0.11562236 2.3080001
-0.51543468 0.12509538 2.3050001
-0.51699227 0.13251509 2.3053334
-0.52239865 0.14865221 2.303
-0.51907724 0.14452794 2.3080001
-0.51862741 0.15550867 2.306
-0.55574322 0.16640173 2.303
-0.54383337 0.16465569 2.3034
-0.5357365 0.16640173 2.303
-0.56167954 0.17947976 2.3
-0.55628496 0.17322807 2.3052499
-0.54486489 0.1753526 2.3039999
-0.53370672 0.17534022 2.3038332
-0.55496234 0.18018208 2.309
-0.50513607 0.027553951 2.319
-0.49783444 0.025679672 2.3180001
-0.5058822 0.035745665 2.319
-0.49554285 0.035295568 2.3188
-0.50588226 0.044682086 2.319
-0.49830601 0.044605009 2.3150001
-0.52042663 0.055732176 2.3139999
-0.5125975 0.053618498 2.319
-0.50588226 0.053618498 2.319
-0.4987365 0.053574182 2.3169999
-0.52229375 0.06320969 2.3156664
-0.5125975 0.062554911 2.319
-0.50812066 0.062554911 2.319
-0.51483595 0.1094711 2.319
-0.50476301 0.10611993 2.319
-0.49603894 0.10646338 2.3183334
-0.51483595 0.11617342 2.319
-0.50588226 0.11393931 2.319
-0.49469018 0.11393931 2.319
-0.5125975 0.12734394 2.319
-0.51700002 0.14519654 2.3186667
-0.51707435 0.15415318 2.319
-0.56014675 0.18041618 2.312
-0.50451255 0.11861175 2.323
-0.51348168 0.12308767 2.323
-0.50899708 0.12756358 2.323
-0.51572394 0.13427746 2.323
-0.51348168 0.14546724 2.323
-0.50603282 0.11896916 2.3299999
-0.51140738 0.12367053 2.3340001
