# .PCD v0.7 - Point Cloud Data file format
VERSION 0.7
FIELDS x y z
SIZE 4 4 4
TYPE F F F
COUNT 1 1 1
WIDTH 1536
HEIGHT 1
VIEWPOINT 0 0 0 1 0 0 0
POINTS 1536
DATA ascii
-0.082984447 0.35481197 0.98369998
-0.078609481 0.35421687 0.98799998
-0.083467335 0.36539853 0.9833529
-0.079174474 0.36416835 0.98825002
-0.084678382 0.37490037 0.98471433
-0.085953429 0.38458264 0.98537493
-0.091756761 0.39936417 0.98000002
-0.086787373 0.39557299 0.98400009
-0.092387386 0.40188184 0.98000002
-0.087353081 0.40471247 0.98431569
-0.087813385 0.41166124 0.98533326
-0.068329826 0.30595326 0.99430007
-0.070933685 0.31572515 0.99309999
-0.067431472 0.31439885 0.99799997
-0.071787648 0.3259916 0.9935714
-0.067500003 0.32433814 0.99899995
-0.072517969 0.33555099 0.99294448
-0.06779097 0.33381343 0.9985556
-0.073086359 0.34557503 0.99568427
-0.068464287 0.34262428 0.99900001
-0.073619612 0.35533884 0.99513036
-0.074933216 0.3652584 0.99536365
-0.081266895 0.37787908 0.99049997
-0.075795211 0.37483457 0.99407995
-0.081842527 0.38551497 0.99085712
-0.076762892 0.38501769 0.99414998
-0.082330115 0.39461964 0.99180013
-0.077759445 0.39492065 0.99635714
-0.08220356 0.40534747 0.99155563
-0.078298785 0.40419647 0.99699992
-0.083119586 0.41347003 0.99210006
-0.078991309 0.41439113 0.99800003
-0.059174709 0.29917631 1.005
-0.062744506 0.30583125 1.0048461
-0.05932191 0.30477506 1.0075001
-0.063051157 0.31531116 1.005
-0.059351347 0.31560692 1.008
-0.063022912 0.32484484 1.0045333
-0.059292473 0.32208383 1.007
-0.064279482 0.33539915 1.0055385
-0.065624326 0.34493372 1.0048001
-0.066931471 0.35468498 1.005
-0.070604242 0.36682081 1.002
-0.067657106 0.36536685 1.00375
-0.070604242 0.37550864 1.002
-0.068062745 0.37452835 1.0052857
-0.07175675 0.38515911 1.0031111
-0.069081083 0.385526 1.008
-0.072443202 0.39563724 1.0048462
-0.069081083 0.39135259 1.008
-0.07454931 0.40561858 1.00525
-0.074347213 0.41513598 1.0047222
-0.072539188 0.42139941 1.0073999
-0.055628899 0.30601212 1.0135332
-0.054433484 0.31494597 1.0131665
-0.055129215 0.32493258 1.013409
-0.061479732 0.33700001 1.011
-0.055827957 0.33517739 1.0148
-0.061805021 0.34641519 1.011
-0.057039585 0.34463489 1.015
-0.062604576 0.35530794 1.0116668
-0.057978977 0.35490388 1.0156429
-0.063492283 0.36495569 1.0119998
-0.059336595 0.36471605 1.0172857
-0.063671336 0.37517664 1.0126429
-0.058981664 0.37487063 1.0165555
-0.064397559 0.38521287 1.0136819
-0.059573036 0.38452089 1.0173334
-0.065503627 0.3955178 1.01445
-0.05988127 0.39190751 1.017
-0.0712208 0.40507972 1.0107501
-0.066733159 0.40443569 1.0151113
-0.071238421 0.41297114 1.011
-0.067749485 0.41522032 1.0155294
-0.067140281 0.42304751 1.0146667
-0.051270753 0.2981835 1.0215
-0.045863766 0.29761934 1.0234286
-0.05154651 0.30412799 1.0216364
-0.045351442 0.30474803 1.0246667
-0.050236966 0.31263727 1.0204999
-0.045181923 0.31438795 1.0251429
-0.050236966 0.32640222 1.0204999
-0.04625085 0.32450834 1.025
-0.050581563 0.33536112 1.0208334
-0.046642654 0.3344954 1.0250714
-0.051635046 0.34639856 1.0209
-0.04681319 0.3447077 1.0252306
-0.052456491 0.35499007 1.0224615
-0.04737037 0.35469878 1.0266999
-0.053820416 0.36538216 1.0240455
-0.048659462 0.36572948 1.0288
-0.053785853 0.37468076 1.0238571
-0.047728661 0.37482637 1.0277778
-0.054903306 0.38449514 1.0239444
-0.048668921 0.38166186 1.029
-0.060057916 0.39699423 1.02
-0.056292657 0.39462644 1.0232
-0.06133436 0.4054907 1.0216
-0.057206757 0.40522122 1.0253999
-0.061997235 0.41473314 1.0218573
-0.056773908 0.41552722 1.0263846
-0.062174585 0.4245514 1.0224667
-0.056645673 0.42411685 1.0265833
-0.05755116 0.43080926 1.028
-0.040841695 0.29926011 1.0319999
-0.040825866 0.30510598 1.0316
-0.037013091 0.30541357 1.0364375
-0.040802125 0.31684875 1.031
-0.037014406 0.31453374 1.0364616
-0.041867517 0.32534802 1.03275
-0.03839479 0.32156357 1.0376667
-0.042109396 0.33501711 1.036
-0.043552767 0.34378228 1.0333333
-0.043333009 0.35409501 1.0353637
-0.044917569 0.36498967 1.0342002
-0.044515226 0.37417752 1.0351111
-0.050753862 0.38637671 1.031
-0.046733271 0.38561293 1.0338333
-0.05180319 0.39474463 1.0321001
-0.04699517 0.39554426 1.0359333
-0.052502371 0.40507397 1.0323077
-0.047680929 0.40479416 1.0363333
-0.052522644 0.41440693 1.0326923
-0.047753789 0.4149954 1.0356923
-0.052083101 0.42500675 1.0322728
-0.048063815 0.42532486 1.035
-0.052861005 0.4320488 1.0333333
-0.048362937 0.43244186 1.0366668
-0.031329151 0.29957515 1.0470001
-0.028336391 0.29899275 1.0485001
-0.032364305 0.30462143 1.0424167
-0.027591838 0.30540019 1.0477142
-0.03252928 0.31586802 1.0423332
-0.027305214 0.31528151 1.0477999
-0.03466294 0.32600373 1.0441002
-0.028006328 0.32478172 1.0487779
-0.0411583 0.33965316 1.04
-0.035498913 0.33580241 1.0459584
-0.02939189 0.33482659 1.05
-0.0411583 0.34566474 1.04
-0.035249915 0.34511814 1.0463637
-0.02939189 0.34696531 1.05
-0.041197877 0.3570289 1.041
-0.035311703 0.35433254 1.0454803
-0.02939189 0.35708091 1.05
-0.041229539 0.36433122 1.0417999
-0.035116166 0.36461723 1.0473914
-0.02939189 0.36416185 1.05
-0.041822396 0.37597188 1.0422857
-0.036983535 0.37455422 1.0489411
-0.042175032 0.38533247 1.0431112
-0.037462357 0.38503754 1.049
-0.042262066 0.39470378 1.0425
-0.037462354 0.39514351 1.049
-0.043277986 0.40546826 1.0427693
-0.03833108 0.40351787 1.0489999
-0.043180019 0.41520968 1.0439286
-0.039527025 0.4117052 1.05
-0.043616675 0.42378649 1.044875
-0.045933537 0.43446738 1.0442857
-0.023054246 0.29876703 1.0569999
-0.018212354 0.2975761 1.0599999
-0.022897923 0.3044031 1.0544165
-0.017512066 0.3051531 1.058357
-0.022406755 0.31513619 1.0552
-0.018190926 0.31437725 1.0588
-0.023111405 0.3255105 1.0564166
-0.019440154 0.32576105 1.0599999
-0.024632135 0.33520755 1.0565789
-0.018563153 0.33538947 1.0599999
-0.025218522 0.34500378 1.0563911
-0.018416988 0.341079 1.0599999
-0.025193775 0.35445207 1.0569499
-0.025493104 0.3644031 1.0565714
-0.032185648 0.37602308 1.053
-0.027530888 0.37388006 1.0565
-0.032554634 0.38484198 1.0539999
-0.029643822 0.38462716 1.059
-0.032555018 0.39499655 1.0539999
-0.028725438 0.3951582 1.0586667
-0.034375034 0.40572926 1.0546923
-0.029245753 0.403552 1.0594
-0.035608053 0.41487136 1.0574999
-0.04173214 0.42870855 1.0545
-0.036775388 0.42519674 1.0583999
-0.042769063 0.43501204 1.0549999
-0.037040643 0.43536681 1.0594442
-0.042830601 0.44173506 1.0565
-0.037061773 0.44211918 1.05925
-0.013395271 0.29623026 1.0676666
-0.012831967 0.30380449 1.0635835
-0.013356793 0.31485322 1.0645455
-0.015841698 0.32541338 1.0660001
-0.014643451 0.33481103 1.0663078
-0.015976768 0.34592837 1.0659333
-0.021527028 0.35911563 1.062
-0.016578453 0.35500455 1.0663888
-0.021539191 0.3654584 1.0626001
-0.017873287 0.36457646 1.0665455
-0.023100872 0.37533528 1.06375
-0.018552728 0.37447673 1.067875
-0.02468216 0.38501179 1.0657223
-0.018366989 0.38166803 1.069
-0.024389064 0.39481017 1.065643
-0.025230322 0.4051035 1.0653847
-0.031777993 0.41743356 1.062
-0.026789522 0.41498271 1.0655265
-0.031777993 0.42459542 1.062
-0.027357848 0.42428043 1.0656666
-0.031766023 0.43466169 1.0616001
-0.028511671 0.43545654 1.0653638
-0.032603666 0.44350463 1.0622
-0.02761109 0.44423714 1.0667272
-0.007026169 0.29667735 1.0746667
-0.0074548093 0.30388889 1.0759091
-0.01138224 0.31912139 1.072
-0.008762273 0.31442472 1.0771428
-0.01138224 0.32531792 1.072
-0.0077202846 0.32477888 1.0770714
-0.01138224 0.3346127 1.072
-0.0081910128 0.33525318 1.075889
-0.01137693 0.34478086 1.0715001
-0.0085783061 0.34485441 1.0773749
-0.011388611 0.35443568 1.0726001
-0.008475869 0.35428089 1.0784286
-0.013099333 0.36549342 1.0741818
-0.0093735522 0.36278519 1.079
-0.013482175 0.37515244 1.0747334
-0.014880511 0.38559869 1.0733684
-0.02172973 0.39347973 1.072
-0.016001072 0.39447653 1.0737777
-0.021722972 0.40574661 1.0716667
-0.01725742 0.40428677 1.0756874
-0.021733783 0.41421288 1.0722001
-0.017638158 0.41465157 1.0751332
-0.022332322 0.42557362 1.0725714
-0.018659268 0.42525434 1.074
-0.023979804 0.43459141 1.073077
-0.018550193 0.43445587 1.0762857
-0.022933483 0.44511768 1.0756364
-0.019784024 0.44480324 1.07875
-0.02185135 0.45176297 1.0779999
-0.019088158 0.45134938 1.0786667
-0.001740991 0.29856291 1.0823333
0.0031507399 0.29814851 1.0871667
-0.0026108429 0.30603531 1.0823333
0.0022145002 0.30498248 1.0862223
-0.0040468751 0.3154501 1.0824375
0.0020961391 0.31480345 1.0856001
-0.0023740788 0.32491547 1.0831817
0.0019832691 0.32524896 1.0871111
-0.0031344916 0.33497816 1.0832
0.0027701827 0.33490935 1.0879089
-0.0035842524 0.34532437 1.0838572
0.001399131 0.3436729 1.0865
-0.0035299829 0.35507187 1.0848125
0.0010511583 0.3535578 1.089
-0.0049550189 0.36464998 1.0857999
-0.0064493492 0.37440443 1.0860528
-0.0074867834 0.3843905 1.084923
-0.011477799 0.39574182 1.081
-0.0077126189 0.39464682 1.0855454
-0.012384583 0.40584105 1.0821428
-0.0073374519 0.4049958 1.0862668
-0.012434471 0.41492927 1.0836666
-0.0083928583 0.41469362 1.087
-0.01360111 0.42478672 1.0842501
-0.0094517376 0.42136419 1.0880001
-0.014554406 0.43524206 1.0843637
-0.014590825 0.44500783 1.0837142
-0.013859918 0.45276266 1.084125
0.0079092663 0.29785839 1.0925
0.011626448 0.29854047 1.095
0.0075482628 0.30494106 1.0929232
0.012591805 0.30498824 1.0971112
0.0072455877 0.31491178 1.0942857
0.011668919 0.31551251 1.099
0.0073978216 0.32474166 1.0944287
0.011668919 0.32504141 1.099
0.0076924297 0.33469841 1.0935
0.011668919 0.33562908 1.099
0.0065492922 0.34530279 1.0938667
0.011668919 0.34515798 1.099
0.005144373 0.35475969 1.0964286
-0.001054054 0.36820811 1.092
0.0031768016 0.36451736 1.0956668
-0.0014756757 0.37557226 1.092
0.0020006436 0.37451896 1.0964446
-0.002319305 0.3853212 1.0928
0.0020018232 0.3848055 1.097
-0.002639157 0.39541039 1.0944999
0.0010598456 0.39562091 1.098
-0.0025306952 0.40463123 1.0932
0.0010608108 0.40550771 1.099
-0.0030027474 0.4154698 1.0939231
0.0010608108 0.41503659 1.099
-0.0045385133 0.42563504 1.0944
0.0010608108 0.42350674 1.099
-0.011586631 0.43523771 1.0912501
-0.0055690599 0.43524849 1.0953636
-0.0057853474 0.44476968 1.095619
-0.007395233 0.45472959 1.0951539
-0.0053040539 0.46056357 1.099
0.014927123 0.29900241 1.1045001
0.016635714 0.30456072 1.1046001
0.020338802 0.30769941 1.109
0.015999312 0.31502226 1.1047143
0.020338802 0.31945181 1.109
0.015991015 0.32445878 1.1042308
0.020338802 0.32479382 1.109
0.016016891 0.33454698 1.1059287
0.015465251 0.34516084 1.1046667
0.0087100388 0.3576836 1.1004
0.014991993 0.35451642 1.1042943
0.0080764471 0.36587209 1.1008
0.013733728 0.36530775 1.1064285
0.0074494039 0.37520561 1.10225
0.013091819 0.37437534 1.107125
0.0071829464 0.38525024 1.1044668
0.011775096 0.38498041 1.109
0.0061916336 0.3948285 1.1050667
0.011775096 0.39210308 1.109
0.0053414227 0.40484008 1.1058571
0.005166023 0.41461781 1.1068333
0.0038472009 0.42546368 1.1063001
0.0030115829 0.43441287 1.1054546
-0.0010632239 0.44781646 1.1015
0.001984142 0.44372407 1.1052858
-0.0021245175 0.45503658 1.1010001
0.0014240668 0.45447978 1.1056668
-0.0017715575 0.46111241 1.1020001
0.0021394787 0.46199036 1.1075
0.018214285 0.2983526 1.11
0.023556676 0.29792777 1.1164286
0.018214285 0.30049133 1.11
0.024424758 0.30480266 1.1138573
0.02363761 0.31522632 1.1129376
0.023817291 0.32461193 1.1141429
0.022578048 0.3347578 1.1137143
0.018230693 0.34357575 1.1109999
0.021804778 0.34416112 1.1155001
0.020448841 0.35555395 1.115
0.018263513 0.36456648 1.113
0.020508446 0.3662883 1.11825
0.017479006 0.37544128 1.1142499
0.014775974 0.38498029 1.1148181
0.0096428571 0.39887285 1.11
0.013991714 0.3959209 1.1147499
0.0096558882 0.40476733 1.1115
0.014170108 0.40590599 1.1157691
0.0093001937 0.41517821 1.1116667
0.0146319 0.4155415 1.1152353
0.0085889958 0.42538017 1.1122
0.014623689 0.42452684 1.1160001
0.0082405619 0.4357796 1.1132222
0.013097904 0.43353149 1.1174287
0.0070671542 0.44490692 1.1135714
0.011878619 0.44405177 1.11875
0.0064554373 0.45468971 1.1137223
0.011881273 0.45600864 1.119
0.0075398711 0.46418887 1.1151538
0.028485522 0.2958208 1.1206669
0.03319075 0.29578707 1.1259229
0.02918919 0.30535644 1.12
0.033865087 0.30551127 1.1260768
0.029195705 0.31513846 1.12025
0.033524506 0.31495923 1.1258461
0.028819304 0.32547206 1.1224
0.033068627 0.32460839 1.1269
0.028186295 0.33538404 1.1229999
0.031556625 0.33342195 1.1273333
0.026929779 0.34609804 1.12325
0.026033407 0.35501587 1.1235002
0.025987735 0.36478066 1.1243531
0.02398745 0.37503406 1.1236668
0.018383848 0.38747561 1.1203333
0.023762282 0.38514522 1.1243888
0.017698037 0.39579532 1.1225001
0.022823358 0.39552405 1.1258333
0.018424327 0.40563506 1.1228001
0.022992209 0.40511137 1.1265
0.018394787 0.41254431 1.1210001
0.022237275 0.41455001 1.1261817
0.018419402 0.42823747 1.1224999
0.021855427 0.42454571 1.1257777
0.016740564 0.43615469 1.1227778
0.021397844 0.43363729 1.1271666
0.015962217 0.44534436 1.1235713
0.02068726 0.44446239 1.128
0.015612634 0.45512494 1.1248126
0.020701012 0.4545455 1.12875
0.014410296 0.46477985 1.1249334
0.015603282 0.47185194 1.1276666
0.037622802 0.29491961 1.1352222
0.041020915 0.29573089 1.1383333
0.038175676 0.30481696 1.13
0.041965511 0.30551484 1.1359091
0.038175676 0.31461465 1.13
0.042331945 0.31434232 1.1361001
0.037139837 0.32596856 1.1316251
0.041458253 0.32472038 1.13775
0.035739701 0.3355594 1.1333333
0.041605629 0.33517838 1.1385714
0.035139848 0.34479961 1.135353
0.040678572 0.34235841 1.1390001
0.035003912 0.35452807 1.1348947
0.035124671 0.36493739 1.1350527
0.029449809 0.37557805 1.13
0.035026003 0.3750861 1.1358824
0.029484555 0.3847405 1.1313334
0.034496006 0.38478878 1.137
0.028411195 0.39478034 1.132
0.033864643 0.39486414 1.1373078
0.028414454 0.40464029 1.132125
0.033324216 0.40410006 1.1381111
0.027974552 0.41557243 1.1343637
0.03186221 0.41450894 1.13825
0.027181732 0.42474839 1.1344546
0.031883206 0.42026687 1.1390001
0.025780626 0.4351736 1.1341819
0.024833383 0.44479191 1.1335385
0.024173424 0.45547068 1.1325555
0.017826254 0.4687508 1.1306667
0.022787733 0.4650653 1.1339091
0.018583493 0.47351107 1.1324999
0.023265829 0.47377571 1.1368001
0.045661863 0.29590008 1.145077
0.047635067 0.30491266 1.1437857
0.052126449 0.30772835 1.149
0.047668219 0.31598273 1.1435455
0.052126449 0.31436995 1.149
0.046398841 0.32523566 1.1443999
0.045822877 0.33517471 1.1438333
0.044630859 0.34562016 1.1435715
0.044019818 0.35525554 1.145
0.043687325 0.36518171 1.1447333
0.043108802 0.37504545 1.1450001
0.0385473 0.38582948 1.141
0.043138549 0.38526028 1.1458461
0.0385473 0.39462334 1.141
0.042242002 0.39553276 1.1472857
0.03764189 0.40539455 1.1421429
0.041697714 0.40437493 1.1468333
0.036274284 0.41482052 1.1439999
0.041000001 0.41252792 1.148
0.029736487 0.4276002 1.141
0.034800436 0.42465296 1.1444165
0.029729972 0.43520015 1.1407501
0.033747829 0.43343255 1.14625
0.029311582 0.44542199 1.1416
0.033653475 0.44501925 1.1468
0.028812528 0.45531061 1.1431112
0.032874197 0.45418623 1.1479999
0.02866419 0.46541992 1.1421001
0.032123942 0.46545011 1.1475999
0.028660715 0.47528443 1.1420001
0.033003312 0.47391275 1.1451428
0.032135136 0.48109826 1.148
0.049951736 0.29802504 1.15
0.053994622 0.29598212 1.1549999
0.054750238 0.30469581 1.1535834
0.055863362 0.31536224 1.1548889
0.049951736 0.32461464 1.15
0.053148475 0.32503432 1.1536365
0.049995176 0.33820328 1.151
0.052743912 0.33492789 1.155
0.049995176 0.34152988 1.151
0.05257906 0.3456881 1.1544546
0.047773167 0.35594508 1.151
0.052215248 0.35477054 1.1550001
0.047773167 0.36370713 1.151
0.051136639 0.36541235 1.1544445
0.047814671 0.37512138 1.152
0.05097137 0.37504658 1.1563333
0.047814671 0.38510981 1.152
0.050676834 0.38613605 1.1564001
0.046105534 0.39562234 1.1524444
0.051140923 0.39295569 1.1568
0.045371067 0.40498689 1.1544285
0.044183716 0.41513562 1.1538889
0.038896393 0.42703724 1.1513333
0.043283787 0.42417991 1.1550909
0.037154652 0.43672511 1.1508888
0.042402897 0.4354493 1.1560001
0.037783541 0.44475073 1.1512501
0.042402267 0.44547328 1.156
0.037151448 0.45559317 1.1523
0.042274129 0.45424137 1.1568571
0.036390118 0.46489754 1.154
0.041392859 0.46114355 1.159
0.036779098 0.4736774 1.1545714
0.035631277 0.48229235 1.1535
0.059599418 0.28732175 1.165
0.065744042 0.28734201 1.168818
0.059122905 0.29429415 1.1630001
0.065196745 0.29515681 1.1680589
0.059343629 0.30508667 1.16
0.064815447 0.30454579 1.1670667
0.059343629 0.31514448 1.16
0.063566603 0.31475064 1.1664544
0.058420438 0.32572269 1.1607143
0.063560717 0.32528085 1.1675
0.058356777 0.33489969 1.162625
0.06310907 0.3351804 1.1675
0.05855041 0.34476236 1.164
0.062401865 0.34479609 1.1683334
0.057941992 0.35526618 1.1632998
0.062007722 0.3555761 1.168
0.057314511 0.36487493 1.1641667
0.062060811 0.36489019 1.169
0.056758203 0.37517983 1.1642499
0.062060811 0.37052122 1.169
0.055022765 0.38475987 1.16325
0.054857243 0.39534131 1.1644999
0.048229728 0.40748361 1.1619999
0.052658297 0.40537706 1.1655999
0.048250481 0.41437861 1.1624999
0.05254326 0.41471612 1.1671818
0.047870334 0.42514065 1.1623334
0.051762309 0.42452121 1.16575
0.047047619 0.43555474 1.1635556
0.051080763 0.43446887 1.1673334
0.04710485 0.44437584 1.161875
0.050690155 0.44521391 1.1670001
0.046935134 0.45496994 1.1632
0.050762545 0.45373216 1.1686666
0.045184169 0.4656288 1.1642667
0.039222971 0.47536254 1.161
0.044291988 0.47499022 1.1665
0.039273649 0.48381504 1.1625
0.043308496 0.48514432 1.1684
0.073788933 0.28776878 1.176
0.073910996 0.29472867 1.1753571
0.068234555 0.30665031 1.1716666
0.073598772 0.30457196 1.176
0.068378106 0.31606275 1.1722858
0.073792711 0.31498209 1.1760832
0.068080381 0.32554021 1.1727142
0.073406376 0.32390001 1.1772
0.067829259 0.33521941 1.1733334
0.072550192 0.33478805 1.179
0.067046337 0.34547082 1.1736364
0.071695946 0.34529483 1.179
0.066724531 0.35506228 1.1746154
0.07175675 0.35127166 1.1799999
0.067090437 0.36473244 1.1749232
0.071695946 0.36573988 1.179
0.065123454 0.37432557 1.1752999
0.059906371 0.38582081 1.171
0.063270427 0.38418189 1.1774999
0.05915283 0.39597401 1.171
0.062474422 0.39564979 1.1767501
0.057233013 0.40482444 1.1717999
0.062487897 0.40480515 1.1769999
0.057070192 0.41549614 1.1724285
0.06174206 0.4144589 1.1772221
0.05662524 0.42499396 1.1732501
0.060730308 0.42428884 1.1782
0.055696651 0.43493244 1.1731819
0.060315639 0.43502602 1.179
0.055579074 0.44486758 1.175
0.055202533 0.45448795 1.175
0.053476214 0.4647851 1.1750714
0.048603281 0.47719944 1.171
0.052517802 0.47448859 1.1742222
0.047681879 0.48605412 1.1721429
0.052173022 0.48448965 1.175
0.047555983 0.49157512 1.173
0.052261099 0.49211803 1.177
0.078220561 0.28606117 1.183
0.082506269 0.28706759 1.1871667
0.078790545 0.29518017 1.1830001
0.082373545 0.29459971 1.18525
0.078360423 0.30622563 1.1833999
0.082383208 0.30487594 1.1872221
0.078334168 0.31387109 1.183
0.081348456 0.31561852 1.187
0.078018822 0.32514596 1.1828333
0.081365585 0.32483599 1.18725
0.077387065 0.33443043 1.1847777
0.075979739 0.34554309 1.1844547
0.075484075 0.35497609 1.1847858
0.075056769 0.36477673 1.1862727
0.069026545 0.37748891 1.1819999
0.074441038 0.37489927 1.1864167
0.067865252 0.38586685 1.1835998
0.074687742 0.38376865 1.1873335
0.067573994 0.39457801 1.1831666
0.072625808 0.39408994 1.1880001
0.068572387 0.40493307 1.1839999
0.072182432 0.4036715 1.187
0.067874275 0.4153873 1.1850834
0.066551536 0.42507058 1.1846001
0.072304055 0.42611563 1.189
0.065535434 0.43468121 1.1851429
0.070008688 0.43413392 1.189
0.06357643 0.44477698 1.1857272
0.062951736 0.4546349 1.1857141
0.058199566 0.46469921 1.18225
0.063409396 0.4650777 1.1857334
0.057362814 0.47595459 1.1826251
0.06300997 0.47564852 1.1868334
0.057095557 0.48550963 1.183
0.063018017 0.48486543 1.187
0.057111647 0.49362746 1.1833333
0.061930135 0.49448013 1.188125
0.087684602 0.28787309 1.1952499
0.087444983 0.29512909 1.1919999
0.091162652 0.29484248 1.1955001
0.087405965 0.30541152 1.1937143
0.091315158 0.30456984 1.1975
0.086715542 0.315081 1.1953079
0.085287005 0.32550395 1.1957779
0.082921699 0.33563861 1.193125
0.079278953 0.34288025 1.1903334
0.082893714 0.34588468 1.1945556
0.079323359 0.35913584 1.191
0.083268344 0.35528988 1.1957142
0.079439916 0.36541015 1.19275
0.08205092 0.36448434 1.19725
0.079376638 0.37544912 1.1917999
0.082033783 0.37477863 1.197
0.078556947 0.38667336 1.191
0.08193098 0.38468066 1.1955
0.07741303 0.39508629 1.1937273
0.082170852 0.39389113 1.199
0.076913945 0.40486699 1.1946924
0.075356029 0.41481939 1.1953077
0.075765364 0.42430934 1.1941819
0.074081652 0.43518007 1.1929168
0.067061454 0.44710311 1.191
0.072672009 0.44438475 1.1949999
0.067827217 0.45436993 1.191
0.071558587 0.45500821 1.1957
0.067798749 0.46450144 1.1905
0.071449682 0.46466726 1.193875
0.067827217 0.47502312 1.191
0.071258686 0.47509053 1.1955
0.067827217 0.48534966 1.191
0.070381597 0.48481312 1.1953334
0.066594727 0.4957791 1.1924286
0.070523888 0.49387163 1.19775
0.068168923 0.50163299 1.197
0.070597492 0.50016087 1.199
0.094346844 0.28752086 1.2066666
0.095799506 0.29461643 1.2039999
0.09654247 0.30492643 1.205
0.09483245 0.31393361 1.2054167
0.089244932 0.32621604 1.20075
0.093258895 0.32467091 1.206
0.088160232 0.33574975 1.20175
0.094060637 0.33485472 1.2057273
0.088178568 0.34508285 1.202
0.093157463 0.34401482 1.2063749
0.088252172 0.35464379 1.2030001
0.09285666 0.3553088 1.20625
0.087145992 0.36491308 1.20375
0.093028128 0.36491579 1.2068571
0.087249197 0.37463117 1.2051667
0.092153952 0.37256309 1.2084999
0.086091459 0.38433161 1.20525
0.085898645 0.39495954 1.2057999
0.08447393 0.40458575 1.2054
0.079989381 0.41306069 1.201
0.081739388 0.41602728 1.204
0.079989381 0.42694509 1.201
0.081830762 0.42422959 1.2053334
0.079989381 0.43273026 1.201
0.081864387 0.43601847 1.2058333
0.077800192 0.44504529 1.2030001
0.081255794 0.44352117 1.2083334
0.076519303 0.4549951 1.2031111
0.076689437 0.46503082 1.20375
0.075555407 0.47448459 1.2042
0.074636795 0.48458794 1.2054285
0.074467182 0.49469823 1.2053999
0.073265202 0.50313699 1.2047499
0.099440157 0.28723699 1.212
0.10215782 0.28830296 1.2165
0.099440157 0.29190752 1.212
0.10306692 0.29558849 1.2148888
0.10311113 0.30522123 1.2138751
0.09863288 0.31789821 1.2116667
0.10287162 0.31465125 1.2156667
0.09831129 0.32473508 1.2125001
0.10211582 0.32567245 1.216
0.09878365 0.33414796 1.2121428
0.10211582 0.33504432 1.216
0.098150574 0.34528217 1.2125714
0.10215782 0.34455925 1.2164999
0.097895309 0.35456145 1.213909
0.10228379 0.35084972 1.2180001
0.097828664 0.36482587 1.21375
0.10228379 0.36141044 1.2180001
0.095173016 0.37527215 1.2135
0.092646904 0.38507128 1.2149091
0.092688233 0.39461279 1.2154616
0.087668918 0.40833333 1.211
0.091711402 0.40377858 1.2158571
0.086497925 0.41561645 1.2132857
0.090489864 0.41287234 1.2175
0.086829908 0.4249897 1.2137779
0.08671549 0.43507612 1.214
0.090527028 0.43768209 1.2180001
0.085445307 0.44628325 1.2153335
0.090541892 0.44479638 1.2182
0.08358968 0.4545311 1.2139168
0.081944257 0.46500504 1.21275
0.078285232 0.47580397 1.2105
0.082028478 0.47484252 1.2140001
0.078446917 0.48379773 1.2130001
0.082197398 0.48519367 1.2165
0.07844691 0.49431044 1.2130001
0.083048746 0.49575663 1.2175001
0.077581726 0.5050562 1.2116667
0.082631066 0.50484759 1.2171111
0.083541505 0.51085258 1.219
0.10675972 0.28514582 1.2230715
0.11260619 0.28511241 1.228
0.10797588 0.29435745 1.2212001
0.11238609 0.29399729 1.2256
0.10844076 0.30469233 1.221125
0.11249156 0.30491692 1.22675
0.1070655 0.31552061 1.2227143
0.11026543 0.31595984 1.2283334
0.10616022 0.32492489 1.222
0.11032528 0.3244181 1.229
0.10600986 0.33493513 1.2217778
0.11014576 0.33452928 1.227
0.10616023 0.3449364 1.2220001
0.11026544 0.34435999 1.2283334
0.1054902 0.35572305 1.2233334
0.11032528 0.35165027 1.229
0.10531092 0.36531547 1.2227778
0.11026544 0.36329386 1.2283334
0.097741313 0.37963393 1.22
0.10315035 0.37450504 1.2239231
0.097741313 0.38551062 1.22
0.1026485 0.38501394 1.2244617
0.097741313 0.39491329 1.22
0.10286117 0.39490351 1.2248334
0.09640903 0.40578058 1.22175
0.10230447 0.40352985 1.2262857
0.094962224 0.41545776 1.2231429
0.094408475 0.42520401 1.2234118
0.094570659 0.43497711 1.2236
0.095806129 0.44491354 1.223
0.086798586 0.45823959 1.2206668
0.094359517 0.4545531 1.2230771
0.087361977 0.46524608 1.2212224
0.093193203 0.46450108 1.2244614
0.087312862 0.47576147 1.2223752
0.092889361 0.47446519 1.225875
0.08735811 0.48542967 1.223
0.091233112 0.48485067 1.2275
0.087715089 0.49386719 1.2225001
0.091529451 0.49534699 1.2261666
0.087516554 0.50573635 1.2228571
0.092036359 0.50462848 1.2276667
0.087823033 0.51216185 1.224
0.091344595 0.51267534 1.229
0.11683819 0.28557649 1.2351249
0.12079053 0.28528035 1.239
0.11663659 0.29458743 1.233
0.12187885 0.29456559 1.2379
0.11675507 0.30440271 1.2342499
0.12149034 0.30254272 1.2379999
0.11480888 0.31467843 1.2346667
0.11443039 0.32477781 1.234875
0.11348726 0.33362156 1.2323999
0.11311343 0.34501013 1.2335
0.11207266 0.35559055 1.2332857
0.11280869 0.36538014 1.2354
0.1082455 0.37634969 1.2323333
0.11238348 0.37462306 1.2367142
0.10830406 0.38486707 1.233
0.11218628 0.38466996 1.2378888
0.10816351 0.39504489 1.2314
0.11176593 0.39379013 1.2361666
0.10655668 0.40656742 1.2324286
0.11099856 0.40502071 1.2365
0.10482381 0.41553077 1.2349334
0.11122297 0.41180634 1.239
0.10408235 0.42475164 1.2349999
0.098542474 0.43725434 1.23
0.10388513 0.43494982 1.2348461
0.1026694 0.44481936 1.2339001
0.10245318 0.45419061 1.2341667
0.098842904 0.46592557 1.23375
0.10157336 0.4651469 1.2379999
0.097855888 0.47609371 1.2341429
0.095637277 0.48543754 1.2333333
0.095461942 0.49505943 1.234
0.096896924 0.50628608 1.235889
0.09495835 0.51503193 1.2362858
0.1264471 0.28622621 1.2452
0.13133132 0.28440487 1.24825
0.12727089 0.2947908 1.243875
0.13127872 0.29570881 1.24775
0.12539172 0.30530044 1.2436364
0.13130502 0.30178034 1.248
0.11862163 0.31691203 1.2413334
0.12333097 0.31480199 1.2452999
0.11868533 0.32426077 1.2420001
0.12329114 0.32473782 1.246125
0.11798999 0.33530024 1.2441251
0.1227289 0.33414778 1.2482857
0.11774076 0.34500965 1.2428571
0.12166796 0.3450636 1.248
0.11765371 0.3546744 1.2437501
0.12147298 0.35171291 1.2460001
0.11800756 0.36415556 1.2475001
0.11684942 0.37391907 1.248
0.11664344 0.38526112 1.2458
0.11546043 0.39553738 1.2434
0.11411921 0.40524229 1.2444999
0.11275322 0.41621646 1.2426667
0.10900676 0.42681792 1.2410001
0.11276042 0.42449155 1.2454
0.10902872 0.43527481 1.24125
0.11268467 0.43465701 1.2463334
0.10813592 0.44535026 1.2420001
0.11187379 0.44423389 1.2462499
0.10771106 0.45517471 1.2444444
0.10558494 0.46582371 1.243
0.10606533 0.47544146 1.2450624
0.099343628 0.48739886 1.24
0.10467117 0.48437461 1.244
0.099403717 0.49486634 1.2407501
0.10359364 0.49501774 1.2458571
0.099423751 0.50213873 1.2410001
0.10332787 0.5049631 1.2463334
0.099423744 0.51529002 1.2410001
0.10350689 0.51532555 1.2468749
0.098305985 0.52049136 1.2420001
0.10400128 0.52220362 1.248
0.13631801 0.2851966 1.2531539
0.14218436 0.28867245 1.2589999
0.13658798 0.29521942 1.2539232
0.14218436 0.29352409 1.2589999
0.12910232 0.3094894 1.25
0.13576202 0.30494377 1.2547272
0.12838401 0.31652489 1.2508333
0.13468115 0.31485549 1.257
0.12821566 0.32534322 1.2514286
0.1338121 0.32399571 1.2564445
0.12763041 0.33526975 1.2513334
0.13328496 0.33478537 1.2565556
0.12683421 0.34480289 1.2514166
0.13348033 0.34516317 1.2571249
0.12626964 0.35514098 1.2526429
0.13246235 0.35538244 1.2589999
0.11703668 0.36970136 1.25
0.12568112 0.36469868 1.2543333
0.13197625 0.36508572 1.2589999
0.11884225 0.37546325 1.2508571
0.12450608 0.37501854 1.2541537
0.13003185 0.37600189 1.2589999
0.11944981 0.38535646 1.25
0.12544082 0.3854275 1.2547143
0.13003185 0.38327938 1.2589999
0.11944981 0.39499038 1.25
0.12508735 0.39490169 1.2546428
0.13084202 0.39419556 1.2589999
0.11833881 0.404948 1.2509999
0.12469305 0.40530595 1.2565999
0.11756977 0.41440573 1.252
0.12291893 0.41444862 1.2566667
0.11659122 0.42679977 1.2538333
0.12079802 0.42227912 1.25775
0.11666924 0.43594733 1.2546667
0.12030984 0.43300864 1.2589999
0.11611003 0.44542843 1.253
0.12028595 0.44626129 1.25875
0.11494455 0.45525274 1.2534546
0.12021429 0.45326781 1.258
0.1097973 0.46483624 1.25
0.11486565 0.46526596 1.2549999
0.11485836 0.47490165 1.2549092
0.10984122 0.48670763 1.2505
0.11461969 0.48418054 1.2552001
0.10738417 0.49373794 1.25
0.11180828 0.49474964 1.255625
0.10743572 0.5048179 1.2506
0.11091544 0.50505781 1.2572
0.10758463 0.51517183 1.2523333
0.11168159 0.51492333 1.257625
0.1077278 0.52310401 1.2539999
0.1105 0.52477264 1.258
0.14436921 0.2796315 1.2675
0.14412892 0.28439239 1.2638571
0.14493243 0.29588401 1.266
0.13997588 0.30735359 1.261
0.14377235 0.3040612 1.2658334
0.14175482 0.3146705 1.266
0.1375415 0.32679224 1.261
0.14164369 0.32405257 1.2665714
0.13801415 0.33522928 1.2653333
0.14086391 0.33130926 1.2690001
0.13808687 0.34394222 1.266
0.13678595 0.35470739 1.26525
0.13681322 0.36452988 1.2655001
0.13551296 0.37446973 1.26475
0.13414651 0.3856782 1.2646667
0.13499774 0.39607102 1.2649999
0.12780406 0.40939981 1.261
0.1325379 0.40476492 1.2655001
0.12703262 0.41637629 1.263
0.13186292 0.41434735 1.2665714
0.12547691 0.42574084 1.2642727
0.13096139 0.42388824 1.268
0.12489224 0.43532231 1.2650911
0.12517728 0.44426897 1.2651666
0.12410875 0.45499167 1.2646667
0.11797297 0.46491328 1.26
0.12171445 0.46478856 1.2651666
0.11806661 0.47500098 1.261
0.12093098 0.47547781 1.2655001
0.11806661 0.48714933 1.261
0.12083543 0.48484829 1.2645001
0.1174112 0.49468657 1.2626666
0.12107432 0.4955703 1.267
0.11567085 0.50494343 1.2643334
0.11618243 0.51510018 1.267
0.11426818 0.52436173 1.2638333
0.14762887 0.27872014 1.2745
0.14888489 0.28491113 1.27475
0.15173166 0.28810307 1.278
0.1487973 0.29456887 1.274
0.15173166 0.2917977 1.278
0.1485168 0.3055501 1.2758
0.14759773 0.31426516 1.27425
0.15167229 0.31506598 1.2774999
0.14704275 0.32517257 1.2737
0.15164261 0.32485044 1.2772499
0.14490014 0.33535469 1.2750908
0.14352414 0.34447417 1.2751999
0.14274868 0.35494834 1.2748749
0.14262472 0.36465606 1.2725556
0.14229798 0.37458506 1.2724285
0.13874131 0.3847861 1.272
0.14253668 0.38455844 1.2766666
0.13868678 0.39198411 1.2715
0.14217915 0.39570907 1.2763999
0.13810456 0.40574303 1.2736665
0.14175193 0.40352213 1.277
0.13683908 0.41497317 1.2738571
0.13598903 0.42501041 1.2733636
0.12871622 0.43556839 1.27
0.13399161 0.435132 1.2735001
0.12871622 0.44657996 1.27
0.13411388 0.44535387 1.2746667
0.12886824 0.45568353 1.2714999
0.1335346 0.45425749 1.2758571
0.12717977 0.46602988 1.273
0.13195978 0.46404782 1.2776667
0.12659128 0.47511521 1.27325
0.13268895 0.47614282 1.2787501
0.12654062 0.48473898 1.2727499
0.13182206 0.48323539 1.2763333
0.12660769 0.49480739 1.2734166
0.13204585 0.4951421 1.2785001
0.1190029 0.50815511 1.271
0.1238867 0.5050081 1.273875
0.1190029 0.51427746 1.271
0.12313298 0.5148983 1.2742223
0.11854961 0.52497363 1.2714
0.12305852 0.52567232 1.2748749
0.11793943 0.53215247 1.2727499
0.12319088 0.53361589 1.27625
0.15519533 0.28425205 1.2843636
0.15553138 0.29510683 1.2849
0.1549316 0.30515808 1.2856153
0.15605415 0.31520683 1.2831
0.16031611 0.31753322 1.2874999
0.15565623 0.32534775 1.2812856
0.16012934 0.3245973 1.286
0.14996526 0.33769944 1.284
0.15462232 0.33392414 1.2844286
0.16025385 0.33104911 1.2869999
0.14800644 0.34522155 1.2813333
0.15149985 0.34455442 1.2865001
0.14731418 0.35583961 1.2825
0.15128137 0.35575798 1.2881666
0.14725675 0.36434424 1.2820001
0.14788851 0.37211126 1.2875
0.14668031 0.38666552 1.2855999
0.14626883 0.39382449 1.2841667
0.14405067 0.40478617 1.281
0.13972297 0.41836128 1.281
0.14395754 0.41508693 1.2844445
0.13972297 0.42082947 1.281
0.14381742 0.42565536 1.2860001
0.13972297 0.43440464 1.281
0.14410546 0.43519798 1.2870001
0.13975024 0.44436345 1.28125
0.14417556 0.445333 1.2876251
0.13826419 0.45558381 1.2805713
0.14331526 0.45489383 1.2866001
0.13586558 0.46580034 1.2825
0.14023198 0.4644756 1.2856667
0.13569842 0.47375241 1.283
0.14048648 0.4702813 1.288
0.13596995 0.4846521 1.2844443
0.13525273 0.49413311 1.2855
0.12859556 0.50597978 1.2809999
0.13247684 0.50532848 1.2866668
0.12735811 0.51585555 1.281
0.1321657 0.5148173 1.2876666
0.12735811 0.52572834 1.281
0.13153461 0.52423114 1.2872858
0.12735811 0.53436708 1.281
0.13121766 0.53624874 1.2865
0.16327249 0.28646573 1.2968571
0.16343482 0.29468104 1.294
0.16374414 0.30522266 1.2949166
0.16399083 0.3148641 1.2948999
0.16492362 0.32546136 1.2943751
0.15738867 0.33862427 1.2906667
0.16398756 0.33481467 1.2943749
0.15646754 0.34592617 1.2916249
0.1626583 0.34466863 1.2962501
0.15641217 0.35454354 1.2922001
0.16254812 0.3544175 1.295375
0.15478019 0.36501929 1.2931429
0.16184999 0.36377436 1.2958
0.14829054 0.37809634 1.291
0.15517305 0.37433547 1.2943333
0.16162355 0.37139305 1.298
0.14829054 0.38182756 1.291
0.15384735 0.38475779 1.2942857
0.14829054 0.3992399 1.291
0.15504834 0.39470458 1.2953571
0.14829054 0.40545857 1.291
0.15349175 0.4037945 1.2947272
0.14829054 0.41540849 1.291
0.15349175 0.41399965 1.2947272
0.14859684 0.42499325 1.2936667
0.15245602 0.4243789 1.2961428
0.14866385 0.43391067 1.29425
0.15293194 0.4338733 1.296
0.14866385 0.4438861 1.29425
0.1521028 0.44337013 1.2951666
0.14746884 0.455071 1.2931429
0.14531456 0.46498469 1.2930001
0.14374763 0.4752433 1.2929091
0.14361258 0.4848361 1.2937273
0.13821428 0.49586704 1.29
0.14266464 0.4945257 1.2948571
0.13756274 0.50604916 1.2916666
0.14234965 0.50467497 1.294889
0.13726944 0.51478583 1.2911428
0.14244546 0.51505589 1.2945
0.1365467 0.52521276 1.291875
0.14274256 0.52475631 1.2955714
0.13648435 0.53463471 1.2947999
0.14146815 0.53104532 1.2970001
0.13624999 0.54145467 1.295
0.16820619 0.28632638 1.3024
0.17151061 0.28571868 1.3065
0.16956443 0.29585189 1.3012501
0.1733419 0.29539633 1.3069999
0.16953185 0.30582273 1.301
0.17411619 0.30474433 1.307125
0.16903427 0.31546628 1.302
0.17270464 0.31454718 1.306
0.16992278 0.32285935 1.304
0.17081515 0.3239812 1.306
0.16702028 0.33966377 1.301
0.17005308 0.33442193 1.3049999
0.16727702 0.34520712 1.303
0.17027026 0.34366345 1.3066667
0.16737331 0.35419869 1.30375
0.1665037 0.36501458 1.3035001
0.17031372 0.363895 1.307
0.16467568 0.374872 1.3051428
0.15936293 0.38448939 1.3
0.16229594 0.38549343 1.3033999
0.15936293 0.39450866 1.3
0.16338031 0.39554471 1.3034285
0.15895005 0.4063268 1.3017499
0.16393562 0.40536675 1.3049999
0.15920424 0.41493797 1.3027999
0.1626197 0.41394603 1.3059999
0.15753523 0.42443785 1.3021666
0.16046622 0.42750579 1.309
0.15791808 0.43554169 1.3028572
0.16169909 0.43120641 1.30875
0.15635826 0.44599083 1.3028334
0.16046622 0.44263873 1.309
0.15484574 0.45608407 1.3041817
0.14932431 0.46589595 1.3
0.15480237 0.46507826 1.3065
0.14966893 0.47450626 1.303
0.15458989 0.47420722 1.3073751
0.14969763 0.4846361 1.30325
0.15359917 0.48477194 1.307
0.14789912 0.49510387 1.3021666
0.15285642 0.49424782 1.30875
0.14681466 0.50597298 1.3
0.15099807 0.50577509 1.3082857
0.14707817 0.51566702 1.3023334
0.15078884 0.51383066 1.30725
0.14740758 0.52562159 1.3052499
0.15035811 0.52460885 1.309
0.14501111 0.5355894 1.3035001
0.15035811 0.53469753 1.309
0.13928571 0.54354525 1.3
0.14479682 0.54437256 1.30725
0.15035811 0.54100287 1.309
0.17489767 0.27955008 1.313
0.17690672 0.28491652 1.3133636
0.18189019 0.28436923 1.31775
0.17740154 0.29509714 1.3114284
0.18169467 0.29294384 1.3163334
0.17835955 0.30553228 1.3104999
0.17713802 0.31548378 1.3121427
0.17651691 0.32551283 1.3137
0.1761349 0.33471975 1.3127499
0.17596889 0.34492609 1.3130833
0.17284596 0.35534206 1.3152857
0.17244692 0.36611876 1.3149999
0.16817565 0.37735066 1.3099999
0.17256163 0.37484798 1.3145
0.1669323 0.38610634 1.3115714
0.17139961 0.38395569 1.3153334
0.16802934 0.39535645 1.3128
0.17144305 0.39503694 1.3156667
0.16817567 0.40385357 1.3099999
0.17142133 0.40554819 1.3155
0.16733025 0.41507998 1.3118572
0.17268708 0.41349655 1.3174
0.16553667 0.4242132 1.3135556
0.17187741 0.42060599 1.319
0.16539383 0.43483815 1.3146666
0.16420822 0.44520032 1.3131819
0.16333336 0.45521975 1.3135453
0.15830116 0.46893257 1.312
0.16202702 0.46490258 1.3128573
0.15814029 0.47435066 1.3106667
0.16234419 0.47486374 1.3154286
0.15784362 0.48475376 1.3124
0.16152863 0.48618975 1.3176666
0.15662934 0.49644893 1.3131429
0.16163079 0.49539161 1.3185
0.15667847 0.50459087 1.3148888
0.16169208 0.50447303 1.319
0.15579419 0.51487041 1.3145555
0.15522394 0.52564985 1.3165715
0.15316036 0.53456056 1.3144286
0.14805695 0.5468815 1.311
0.15289575 0.54612428 1.3145001
0.14828281 0.55024564 1.313
0.15555598 0.55121452 1.3173333
0.19099613 0.27762619 1.3279999
0.18706311 0.28388885 1.3273751
0.19099613 0.28402311 1.3279999
0.18623291 0.29488778 1.3251001
0.19104408 0.293053 1.3283334
0.18551451 0.30433196 1.3254445
0.18404569 0.3147493 1.3251112
0.18455282 0.32512513 1.3264285
0.18411982 0.33434597 1.324625
0.18360135 0.342868 1.3255
0.17728312 0.355158 1.3213334
0.18010616 0.35569429 1.3233333
0.17713127 0.36454719 1.324
0.18074131 0.36590362 1.3279999
0.1777751 0.37528902 1.325
0.18074131 0.37997687 1.3279999
0.17621514 0.38488305 1.322875
0.18074131 0.3850944 1.3279999
0.17549267 0.39517531 1.3232
0.18074131 0.39362362 1.3279999
0.17616312 0.40502876 1.3238572
0.1808774 0.40586996 1.329
0.17683397 0.41507545 1.3243333
0.18087742 0.41227168 1.329
0.16984458 0.42952889 1.323
0.17544082 0.42560482 1.3266667
0.16984458 0.43207803 1.323
0.17337137 0.43563053 1.3279999
0.16952366 0.44779915 1.3205
0.17276639 0.44536734 1.3279999
0.16980179 0.45490816 1.3226666
0.17434931 0.45550376 1.328125
0.16772588 0.46500191 1.3224
0.17200758 0.46639434 1.3284285
0.16769676 0.47577664 1.3228333
0.17202589 0.47516418 1.3279999
0.16618274 0.48482275 1.3243334
0.17052929 0.48500863 1.3283334
0.1662202 0.49386019 1.324625
0.17061487 0.49421388 1.329
0.16643907 0.50473684 1.326375
0.17061487 0.5018959 1.329
0.15962838 0.51874852 1.323
0.16359666 0.51537859 1.3255713
0.1595982 0.52502477 1.32275
0.1637726 0.52413374 1.3276
0.15829295 0.53511322 1.3225
0.16284518 0.53417456 1.3283999
0.15679729 0.54327875 1.3206668
0.16035232 0.54542768 1.329
0.15974903 0.55357993 1.324
0.16198231 0.55411339 1.3283334
0.19535667 0.27835789 1.3315001
0.20003378 0.2795077 1.337
0.19626197 0.28496435 1.3324001
0.20003378 0.28208381 1.337
0.19513299 0.29577011 1.332889
0.20023328 0.29268047 1.3383335
0.18871622 0.30879578 1.33
0.19334471 0.30470484 1.333125
0.18871622 0.3152023 1.33
0.19322032 0.31498095 1.3344998
0.18871622 0.3254528 1.33
0.19345586 0.32461986 1.3348571
0.18882264 0.33589381 1.33075
0.19286487 0.33283719 1.3364999
0.1873116 0.34651658 1.3321667
0.18679275 0.35476458 1.3329091
0.18661857 0.36480463 1.3333334
0.1850781 0.37500155 1.3345834
0.18584365 0.38540936 1.3360001
0.1835645 0.39596727 1.3336
0.18475097 0.40437475 1.3353332
0.18408862 0.41564679 1.3373998
0.182211 0.42519593 1.335
0.17884845 0.43405971 1.3329999
0.18262373 0.43573359 1.3355001
0.17768891 0.4436397 1.3325714
0.18309322 0.44516379 1.3371428
0.17888199 0.45469242 1.3332499
0.18321797 0.45367956 1.3385999
0.17778419 0.46553111 1.3332857
0.18223841 0.46052313 1.339
0.17758825 0.47516403 1.3345716
0.17532778 0.48455477 1.3341428
0.17448127 0.49541503 1.3349998
0.17430417 0.50549215 1.3351249
0.16847073 0.5147081 1.3323333
0.17298897 0.51538897 1.3359998
0.16761422 0.52540135 1.3323334
0.17367074 0.52540779 1.3367
0.16705005 0.53576285 1.3327142
0.17453611 0.53418672 1.3374
0.16614546 0.54503232 1.3342998
0.17355745 0.54201978 1.3385
0.1659181 0.55412912 1.3354285
0.20483705 0.2868374 1.3448
0.2053453 0.29558656 1.3440909
0.19796959 0.30735981 1.3405
0.20468324 0.30458993 1.3463334
0.19815421 0.31540102 1.34175
0.20248021 0.31450674 1.349
0.19793268 0.32537887 1.34025
0.20152992 0.32442388 1.347
0.19661261 0.33639657 1.3430001
0.2013803 0.33066472 1.346
0.19599485 0.34544766 1.3446668
0.20248021 0.34374806 1.349
0.19461666 0.35502616 1.3428572
0.19434956 0.36446366 1.3435715
0.19429527 0.37514499 1.3437001
0.19211294 0.38444728 1.3425001
0.18754826 0.39631987 1.34
0.19188476 0.3936522 1.345
0.18754826 0.40148363 1.34
0.19150734 0.40431753 1.3460001
0.18807311 0.41425794 1.34375
0.19102196 0.41502675 1.3462501
0.18687783 0.42497608 1.3431427
0.19136487 0.42486963 1.3486667
0.18719722 0.43494415 1.3436667
0.19228025 0.43493772 1.349
0.18803811 0.44524422 1.3434999
0.19141217 0.44186896 1.349
0.1870722 0.45602697 1.3440001
0.18615323 0.46496046 1.3462499
0.18454428 0.47473323 1.3463749
0.17720078 0.48668596 1.34
0.18228024 0.48572221 1.3456668
0.17985472 0.49332416 1.3405
0.18231621 0.49500886 1.3471999
0.18176627 0.50421321 1.3464285
0.17766361 0.51513922 1.3434999
0.18090571 0.51569331 1.3483334
0.17772973 0.52309823 1.344
0.18083416 0.52587187 1.3478
0.18032432 0.53604627 1.344
0.17549057 0.54678249 1.34175
0.18041377 0.54538149 1.3446666
0.16975626 0.55614305 1.3425
0.17558411 0.55428898 1.3474284
0.16994594 0.56194222 1.344
0.17422412 0.5622133 1.349
0.20857239 0.26839596 1.359
0.21195897 0.26770473 1.3555
0.20769787 0.27276012 1.3589998
0.21330956 0.27346203 1.358143
0.20738298 0.28443763 1.3512499
0.2133487 0.28543687 1.3560001
0.20979731 0.2913295 1.35
0.21263948 0.29425386 1.3514999
0.209875 0.30705059 1.3505
0.21279681 0.3049022 1.3525001
0.20635922 0.3157315 1.3518572
0.21130696 0.31406358 1.3555
0.20632224 0.32452425 1.3528333
0.21109235 0.32497078 1.3583332
0.20540048 0.33543107 1.3539168
0.21175902 0.33772349 1.357
0.20665459 0.34477213 1.3521667
0.21182397 0.34452903 1.354625
0.19937259 0.35505781 1.35
0.20505185 0.35461751 1.3546363
0.21191376 0.35280156 1.3580002
0.19937259 0.36416185 1.35
0.20399782 0.36544386 1.3547499
0.19937259 0.37456647 1.35
0.20280164 0.37609297 1.3555
0.19676641 0.38757226 1.35
0.20011099 0.38509154 1.355
0.19589885 0.39598805 1.3512
0.2018166 0.3945713 1.3576666
0.19589852 0.40499091 1.3517143
0.20128089 0.40439501 1.357
0.19598262 0.41484144 1.3522857
0.20018485 0.41526878 1.3555
0.19580948 0.42473468 1.352375
0.20025867 0.42195374 1.3559999
0.19638354 0.43459859 1.3533334
0.19482529 0.44500828 1.3546
0.19187331 0.45335525 1.35225
0.19308816 0.46460596 1.3546667
0.18947273 0.47472614 1.35375
0.19380586 0.474424 1.356625
0.18834804 0.48570544 1.3537142
0.19345149 0.48433307 1.3587499
0.18820077 0.495684 1.354
0.19283107 0.49489596 1.359
0.18782336 0.50491083 1.3559999
0.19144931 0.5038743 1.3585
0.18427992 0.51394606 1.354
0.18502238 0.52474099 1.3556
0.18462017 0.53580296 1.3565
0.18540396 0.54599023 1.3558334
0.1786554 0.55836123 1.351
0.18372974 0.55533963 1.3554286
0.17830092 0.56515682 1.35325
0.18272442 0.56476349 1.3569999
0.28786197 0.1976869 1.368
0.27597684 0.20823121 1.368
0.28268293 0.20303324 1.3685
0.24111487 0.24854046 1.365
0.20787066 0.27837861 1.363
0.21614851 0.27608106 1.3618572
0.22229464 0.27585286 1.36675
0.20771815 0.28210983 1.362
0.21500997 0.2827768 1.3609999
0.22097611 0.28638464 1.36675
0.24182142 0.28224084 1.369
0.21818374 0.29384586 1.3616667
0.22195368 0.29434234 1.3660001
0.21754305 0.30376551 1.3626001
0.22027558 0.30542246 1.3665
0.21596543 0.31531116 1.3626001
0.2147973 0.32380617 1.3652
0.21367858 0.33369014 1.3636667
0.21341634 0.35733977 1.362
0.20880261 0.36437428 1.3605
0.21286535 0.3637394 1.3655001
0.20794868 0.37568483 1.3635
0.2061916 0.38466546 1.3627499
0.20645127 0.39556345 1.3622998
0.21010713 0.39170808 1.369
0.20728765 0.40495461 1.3628571
0.20513971 0.4145498 1.3635714
0.20363867 0.4248741 1.364
0.20202316 0.43387672 1.362
0.19822393 0.44678229 1.36
0.20300548 0.44469714 1.3656667
0.19722094 0.45535269 1.3621249
0.20178474 0.45413074 1.3663334
0.19801949 0.46429962 1.3622
0.20166168 0.46832129 1.3655
0.19822393 0.47429675 1.36
0.20158784 0.4747254 1.3650001
0.19722699 0.4855493 1.3621665
0.20217857 0.48139209 1.369
0.19727558 0.49485546 1.3624998
0.19534418 0.50532401 1.3634285
0.18799807 0.5156731 1.362
0.19271468 0.51440001 1.3656
0.18804407 0.52454495 1.3623333
0.19126718 0.52542388 1.3627999
0.18803258 0.53545207 1.36225
0.19203833 0.53444701 1.3640001
0.18792905 0.54302645 1.3615
0.19062741 0.54453951 1.362
0.18820512 0.556961 1.3635
0.19095398 0.55335808 1.3643335
0.18733165 0.56564242 1.3648001
0.18577702 0.57203758 1.365
0.2936781 0.19276831 1.3705001
0.2508446 0.23711464 1.375
0.24722201 0.2414393 1.377
0.2341004 0.25887284 1.378
0.2343179 0.26392999 1.3766667
0.22753523 0.27594844 1.3705001
0.23494677 0.27556279 1.3751665
0.24141589 0.27572253 1.373143
0.226034 0.28458372 1.37075
0.23574062 0.28439286 1.3741819
0.24005212 0.28724277 1.374
0.22724228 0.2951639 1.3721429
0.23491795 0.29407519 1.375
0.24022682 0.29275048 1.375
0.22680576 0.30446956 1.3740834
0.23469305 0.30215454 1.3768001
0.22480544 0.31491083 1.3734286
0.23011005 0.31463006 1.378
0.21819498 0.32600194 1.37
0.22557777 0.32579368 1.3746876
0.23435371 0.32783994 1.3761427
0.21823481 0.33530274 1.37025
0.22565494 0.33518064 1.3751668
0.23501877 0.33590034 1.3741819
0.21830118 0.34464803 1.3706669
0.22592808 0.34487104 1.3768334
0.23266941 0.34403297 1.3734999
0.21831444 0.35391164 1.3707502
0.22556844 0.35539976 1.3757857
0.23427975 0.35549322 1.3751665
0.21773809 0.36586833 1.3726667
0.22436136 0.36371976 1.375375
0.23367617 0.36176446 1.3755
0.21561311 0.37499732 1.3719091
0.22196814 0.3701185 1.377
0.2150787 0.38528666 1.3721541
0.21566032 0.39500955 1.3720833
0.22263868 0.39803305 1.3756666
0.23226352 0.39872351 1.375
0.21597381 0.40509763 1.3726666
0.2240375 0.40423232 1.3757143
0.23335907 0.40355143 1.3752
0.21316205 0.41503286 1.3731818
0.20761584 0.42631021 1.37
0.21326075 0.42475075 1.3747143
0.20686053 0.4366951 1.3708333
0.21310589 0.4338654 1.3747
0.20761584 0.44478807 1.37
0.212337 0.44504663 1.3748751
0.20646393 0.45440212 1.3711249
0.21223222 0.45525789 1.3754286
0.20519836 0.46430105 1.3714999
0.21113032 0.46518144 1.3756666
0.2066723 0.47468692 1.3724999
0.20516747 0.48561656 1.3734999
0.20428641 0.49526882 1.3729999
0.19968146 0.50814068 1.37
0.20353803 0.50507993 1.3745999
0.19713943 0.51557517 1.3707143
0.20222908 0.51541877 1.3753333
0.19730359 0.52500784 1.3701818
0.20259285 0.52392316 1.3753999
0.19637549 0.53585744 1.37
0.20150232 0.53497648 1.3752
0.19628814 0.54403949 1.3740001
0.19612934 0.55499518 1.376
0.19433369 0.56413436 1.3733
0.18910232 0.57281315 1.37
0.1939556 0.57385862 1.3743999
0.27386099 0.21466666 1.3839999
0.27386099 0.22533332 1.3839999
0.25783011 0.23599999 1.3839999
0.23643821 0.25725433 1.38
0.24296074 0.25714451 1.383
0.23817986 0.26660243 1.3836666
0.24457142 0.2665607 1.3876001
0.24358132 0.27108791 1.38275
0.23590927 0.30728823 1.3808
0.23625088 0.31535235 1.3840833
0.24249807 0.31156453 1.388
0.2356164 0.32251272 1.3822
0.22511584 0.34699425 1.38
0.2391274 0.34533331 1.3839999
0.22511584 0.35231215 1.38
0.22777992 0.36693642 1.38
0.23396802 0.36651692 1.3805715
0.22540283 0.37535077 1.3802727
0.23340812 0.37417015 1.3802001
0.2254848 0.38617381 1.38225
0.23369086 0.38504848 1.3857143
0.22559303 0.39477324 1.380875
0.23266967 0.39383665 1.3826667
0.21978764 0.4001734 1.38
0.22882529 0.40468368 1.3863335
0.23044401 0.40150288 1.38
0.22267775 0.41569045 1.3861428
0.23194692 0.41081217 1.3890001
0.21720271 0.42691761 1.3805001
0.22341891 0.42461267 1.3859998
0.21920127 0.43556166 1.3805001
0.2258907 0.43489861 1.38475
0.21765637 0.44324857 1.38
0.22441621 0.44504535 1.3822666
0.23169643 0.44378471 1.3875
0.21775289 0.45466986 1.3839999
0.22475676 0.4526532 1.386
0.21632178 0.46512103 1.3833749
0.21406482 0.47437879 1.3831668
0.20913127 0.48791906 1.38
0.21269962 0.48503971 1.3824
0.20928283 0.4949258 1.381
0.21319425 0.49426854 1.38475
0.23144595 0.49805203 1.386
0.20806348 0.50584221 1.38175
0.21364264 0.50525367 1.3862222
0.20676641 0.51525623 1.382
0.21153283 0.51444411 1.3870001
0.20614345 0.52354705 1.3814
0.21004052 0.52475727 1.386
0.20624952 0.53561324 1.383
0.21026787 0.53201014 1.3875
0.19861872 0.54947305 1.381
0.20462672 0.54519117 1.3855715
0.19890638 0.55426586 1.383
0.20201352 0.5554682 1.386
0.19861872 0.56809926 1.381
0.20186777 0.56440753 1.3850001
0.19871461 0.57369912 1.3816667
0.20201352 0.57416189 1.386
0.19905019 0.57999998 1.3839999
0.20201352 0.58083814 1.386
