# .PCD v0.7 - Point Cloud Data file format
VERSION 0.7
FIELDS x y z
SIZE 4 4 4
TYPE F F F
COUNT 1 1 1
WIDTH 416
HEIGHT 1
VIEWPOINT 0 0 0 1 0 0 0
POINTS 416
DATA ascii
0.84729242 -0.90189302 2.2449999
0.85379338 -0.90189302 2.2449999
0.8064788 -0.89363968 2.2460001
0.81478763 -0.89324176 2.2449999
0.82562256 -0.8932417 2.2449999
0.84512544 -0.89540458 2.2449999
0.85379338 -0.89540458 2.2449999
0.8638581 -0.89244604 2.243
0.87251836 -0.89244604 2.243
0.81515062 -0.88931215 2.2460001
0.82696563 -0.88532162 2.2452857
0.83881128 -0.88478851 2.2455001
0.84512544 -0.88459045 2.2449999
0.85379338 -0.88459057 2.2449999
0.86462831 -0.88459051 2.2449999
0.87329626 -0.88459045 2.2449999
0.81695461 -0.87377644 2.2449999
0.82562256 -0.87377644 2.2449999
0.83645749 -0.87377644 2.2449999
0.84512544 -0.87377644 2.2449999
0.85379338 -0.87377644 2.2449999
0.86462831 -0.87377644 2.2449999
0.87329626 -0.87377644 2.2449999
0.81695461 -0.86728799 2.2449999
0.82648933 -0.86555779 2.2449999
0.83561063 -0.86427611 2.2446666
0.84512544 -0.86512518 2.2449999
0.85379338 -0.86296237 2.2449999
0.86462831 -0.86512524 2.2449999
0.87329626 -0.86512518 2.2449999
0.85379338 -0.85863674 2.2449999
0.86462831 -0.85647392 2.2449999
0.87329626 -0.85647392 2.2449999
0.76535618 -0.90316474 2.2590001
0.77843922 -0.90534103 2.2590001
0.78498071 -0.90534109 2.2590001
0.7915222 -0.90316474 2.2590001
0.80560589 -0.90415299 2.25875
0.81532723 -0.90514117 2.2584999
0.82386482 -0.90276492 2.2579999
0.83411252 -0.90474588 2.2585998
0.84385425 -0.90316474 2.2590001
0.76535624 -0.89445955 2.2590001
0.77843922 -0.89445955 2.2590001
0.7842539 -0.89736128 2.2590001
0.7915222 -0.89881217 2.2590001
0.80551738 -0.89534879 2.2585001
0.81454086 -0.89129382 2.2583332
0.82422972 -0.89010698 2.2590001
0.83949327 -0.89445955 2.2590001
0.84348065 -0.89841419 2.2579999
0.76535618 -0.88575435 2.2590001
0.77843922 -0.88357806 2.2590001
0.7828002 -0.88140178 2.2590001
0.80896622 -0.88357806 2.2590001
0.81532681 -0.88338298 2.2585001
0.82422972 -0.88575435 2.2590001
0.83912158 -0.88536221 2.2579999
0.84348065 -0.88971287 2.2579999
0.80751258 -0.87414742 2.2590001
0.81514573 -0.87448555 2.2579999
0.84385425 -0.87269658 2.2590001
0.85475677 -0.87269658 2.2590001
0.86129826 -0.87269658 2.2590001
0.82422972 -0.86616766 2.2590001
0.83077127 -0.86399138 2.2590001
0.73733592 -0.91227359 2.26
0.74383056 -0.91271245 2.2665
0.7599836 -0.91153473 2.2690001
0.74416965 -0.90516937 2.2662001
0.76393872 -0.90644801 2.2645001
0.77335107 -0.90704119 2.2632501
0.79560202 -0.90449685 2.2623334
0.84859073 -0.90791905 2.26
0.68113804 -0.89841908 2.2690001
0.74383056 -0.89742923 2.2665
0.76436394 -0.89623314 2.2690001
0.77442086 -0.89921004 2.26
0.78584796 -0.8932693 2.2614999
0.79292375 -0.89604336 2.263
0.80277991 -0.8948555 2.26
0.76570702 -0.88651395 2.2665
0.77750486 -0.88093162 2.2690001
0.78637064 -0.88514256 2.263
0.68725532 -0.87161124 2.2674999
0.69773555 -0.87103468 2.266
0.76874423 -0.87655973 2.2690001
0.77721316 -0.87524396 2.2656002
0.78890347 -0.8702659 2.2639999
0.6879223 -0.86315274 2.2625
0.69585329 -0.86705112 2.2670002
0.77981758 -0.86988151 2.263
0.78855503 -0.86552119 2.263
0.80374455 -0.86317605 2.2606668
0.81039864 -0.86552119 2.263
0.86282337 -0.86116087 2.263
0.80059844 -0.85566473 2.26
0.66946912 -0.91792482 2.2739999
0.67534077 -0.91555202 2.279
0.68587524 -0.91522312 2.276
0.69361389 -0.91573411 2.2739999
0.70166212 -0.91646433 2.2739999
0.73444045 -0.9152959 2.2739999
0.75434166 -0.91500378 2.2739999
0.8047294 -0.91260594 2.2716665
0.82677996 -0.91273993 2.2720001
0.83153188 -0.91314161 2.273
0.84614474 -0.91233814 2.2709999
0.66946912 -0.9069711 2.2739999
0.67974037 -0.90676975 2.279
0.68556565 -0.90331984 2.2739999
0.69361383 -0.90478033 2.2739999
0.7265386 -0.90039879 2.2739999
0.73531854 -0.90478027 2.2739999
0.75507331 -0.90478033 2.2739999
0.76165825 -0.90478033 2.2739999
0.77414668 -0.90179384 2.2719998
0.80116791 -0.90039879 2.2739999
0.67705595 -0.89881504 2.27
0.68513417 -0.89422065 2.2750001
0.69361389 -0.89382654 2.2739999
0.71556365 -0.89382654 2.2739999
0.73619646 -0.8942647 2.2739999
0.74629343 -0.89601731 2.2739999
0.75507331 -0.8938266 2.2739999
0.76165825 -0.8938266 2.2739999
0.77663976 -0.89419538 2.2716
0.79458296 -0.89382654 2.2739999
0.80520171 -0.89343351 2.273
0.68493527 -0.88444602 2.2758002
0.69361389 -0.88506353 2.2739999
0.70469141 -0.88300228 2.2743332
0.71336871 -0.88287282 2.2739999
0.73970848 -0.88506353 2.2739999
0.74629343 -0.88506353 2.2739999
0.75507331 -0.88506353 2.2739999
0.76385325 -0.88506359 2.2739999
0.77440083 -0.88457632 2.2727499
0.78765154 -0.88248461 2.273
0.7951985 -0.88420391 2.2736666
0.80520171 -0.88467437 2.273
0.6002838 -0.87564743 2.2780001
0.68636805 -0.87513298 2.2766666
0.69434553 -0.87703085 2.2739999
0.70546675 -0.87673873 2.2739999
0.71336871 -0.87849128 2.2739999
0.77381921 -0.87315923 2.2753334
0.787305 -0.87553179 2.2719998
0.79566503 -0.87741518 2.2749999
0.8052032 -0.87591469 2.273
0.81635278 -0.87391758 2.2735
0.8220318 -0.87295663 2.2709999
0.84104735 -0.87011081 2.2750001
0.68733108 -0.86572742 2.2750001
0.70678377 -0.86972827 2.2739999
0.78545684 -0.86496466 2.273
0.79454827 -0.86610532 2.276
0.80230212 -0.86639404 2.2709999
0.81714511 -0.86668044 2.2736666
0.82275581 -0.86715508 2.273
0.52806079 -0.92397976 2.289
0.53468919 -0.92397976 2.289
0.54352701 -0.92397976 2.289
0.55457431 -0.92397976 2.289
0.56316602 -0.92357618 2.2880001
0.57666892 -0.92397976 2.289
0.58550674 -0.92397976 2.289
0.59655404 -0.92397976 2.289
0.60539186 -0.92397976 2.289
0.61422974 -0.92397976 2.289
0.62527704 -0.92397976 2.289
0.63632429 -0.92397976 2.289
0.64516222 -0.92397976 2.289
0.65400004 -0.92397976 2.289
0.66504735 -0.92397976 2.289
0.67652607 -0.92155778 2.283
0.68272299 -0.92397976 2.289
0.71723264 -0.9229033 2.2863333
0.72673309 -0.92095232 2.2814999
0.52806079 -0.91956937 2.289
0.53468919 -0.91515899 2.2889998
0.54509401 -0.91555989 2.288625
0.55526352 -0.91219282 2.2881999
0.56537449 -0.91255397 2.2879999
0.57420844 -0.91255397 2.2879999
0.58472878 -0.91367036 2.2884285
0.59651077 -0.91509199 2.2888334
0.60539192 -0.91515899 2.2889998
0.61422974 -0.91515893 2.2889998
0.62527704 -0.91515899 2.2889998
0.63632435 -0.91515893 2.2889998
0.64516217 -0.91515893 2.2889998
0.65400004 -0.91515893 2.2889998
0.66504729 -0.91515899 2.2889998
0.67667425 -0.91515946 2.2835
0.68463326 -0.91475922 2.2880001
0.70705074 -0.91375625 2.2855
0.7158649 -0.91515899 2.2889998
0.72580063 -0.9150089 2.2872498
0.53689867 -0.90633816 2.289
0.54573649 -0.90413296 2.289
0.55457431 -0.90413302 2.2889998
0.56562161 -0.90413296 2.289
0.57445943 -0.90413296 2.289
0.58550674 -0.90413302 2.2889998
0.59655404 -0.90413296 2.289
0.60465544 -0.90339786 2.289
0.61422974 -0.90413296 2.289
0.62527704 -0.90413302 2.2889998
0.63632429 -0.90413296 2.289
0.64516222 -0.90413296 2.289
0.65400004 -0.90413296 2.289
0.66504729 -0.90413302 2.2889998
0.67612201 -0.90489978 2.2876
0.6821264 -0.90113968 2.2869999
0.70485359 -0.90595597 2.2843335
0.7158649 -0.90633816 2.289
0.72521329 -0.90569133 2.2836666
0.55567908 -0.89641482 2.289
0.56562161 -0.89751738 2.289
0.57445943 -0.89531219 2.289
0.58550674 -0.89531213 2.2889998
0.59655404 -0.89531219 2.289
0.60539186 -0.89531219 2.289
0.61422974 -0.89531219 2.289
0.62527704 -0.89531213 2.2889998
0.63632429 -0.89531219 2.289
0.64516217 -0.89531219 2.289
0.65326357 -0.89604729 2.289
0.66504729 -0.89531213 2.2889998
0.67609465 -0.89531219 2.289
0.68003863 -0.89398843 2.28
0.70430005 -0.89549434 2.2815998
0.71178478 -0.89516026 2.283
0.72602826 -0.89616209 2.2827499
0.73273748 -0.89433241 2.2865
0.74606174 -0.89398843 2.28
0.75112164 -0.89477265 2.2820001
0.55899328 -0.88869655 2.289
0.5678311 -0.88649136 2.289
0.57225001 -0.88869655 2.289
0.58639055 -0.88693249 2.289
0.59655404 -0.88649142 2.289
0.60539192 -0.88649142 2.289
0.61422974 -0.88649142 2.289
0.62527704 -0.8864913 2.2889998
0.63632429 -0.88649142 2.289
0.64442569 -0.8872264 2.289
0.66725671 -0.88869655 2.289
0.67683107 -0.8872264 2.289
0.68162936 -0.88726717 2.2853334
0.70644784 -0.88959539 2.28
0.71760952 -0.88979042 2.2804999
0.72358781 -0.88487959 2.2820001
0.73610348 -0.8864603 2.2832499
0.74237835 -0.88428617 2.289
0.75563514 -0.88428617 2.289
0.76589704 -0.8833847 2.2866666
0.59655404 -0.87767053 2.289
0.60760134 -0.87767053 2.289
0.61422974 -0.87767053 2.289
0.62439328 -0.87811154 2.289
0.63632429 -0.87987572 2.289
0.64295274 -0.87987572 2.289
0.6830985 -0.8755331 2.2853334
0.71572155 -0.8747943 2.2814999
0.74458784 -0.87987572 2.289
0.76447296 -0.87987572 2.289
0.77353883 -0.87342191 2.2875001
0.78230214 -0.8731705 2.283
0.80301201 -0.87412375 2.2855
0.74263608 -0.86877167 2.283
0.78264475 -0.86695182 2.2839999
0.7947104 -0.86148071 2.2869999
0.80469108 -0.86915219 2.2839999
0.81208491 -0.86323696 2.28
0.46318918 -0.92680538 2.296
0.4758639 -0.92117631 2.293
0.48503524 -0.92398894 2.2944999
0.47143725 -0.91675818 2.293
0.53258693 -0.91472733 2.299
0.54368246 -0.91029769 2.299
0.44565347 -0.90286708 2.2969999
0.53736776 -0.90271574 2.2909999
0.54812068 -0.90143836 2.299
0.60786676 -0.90673411 2.29
0.47195125 -0.89343303 2.2954998
0.5636583 -0.89349711 2.29
0.65542471 -0.89284396 2.2940001
0.48609048 -0.88520932 2.29425
0.56586874 -0.8846724 2.29
0.64892709 -0.88420373 2.2944999
0.6635502 -0.88768983 2.2939999
0.67441332 -0.88348734 2.2937999
0.72660232 -0.8843931 2.2950001
0.73546338 -0.8843931 2.2950001
0.74572158 -0.88122112 2.2925
0.75318432 -0.88439405 2.2950001
0.76049322 -0.88295084 2.2969999
0.48935711 -0.87737763 2.2939999
0.49632576 -0.87352836 2.2954998
0.50552285 -0.87430543 2.2936666
0.63244694 -0.87928998 2.299
0.7272355 -0.87631214 2.2969999
0.73386961 -0.87526941 2.2923334
0.74502212 -0.87450385 2.2903333
0.76936197 -0.87852502 2.2969999
0.49799711 -0.86815894 2.293
0.50496572 -0.86872685 2.2944999
0.80491227 -0.86668688 2.293
0.82592857 -0.86853755 2.2939999
0.49593821 -0.93003464 2.3039999
0.50483394 -0.93003464 2.3039999
0.51595366 -0.93003464 2.3039999
0.52262545 -0.93003464 2.3039999
0.44730261 -0.92397738 2.3055
0.4601554 -0.92963099 2.303
0.47773167 -0.92035645 2.302
0.48492584 -0.92406476 2.3023999
0.49350095 -0.92408377 2.303
0.50483394 -0.92337567 2.3039999
0.51595366 -0.92337567 2.3039999
0.52497399 -0.92414427 2.3026001
0.4472056 -0.91711468 2.3050001
0.46884364 -0.91592103 2.302
0.47581998 -0.91429818 2.3034999
0.48481852 -0.91449708 2.3039999
0.49371427 -0.91449702 2.3039999
0.50483394 -0.91449696 2.3039999
0.51595366 -0.91449708 2.3039999
0.52484941 -0.91449702 2.3039999
0.53105986 -0.91370237 2.302
0.47592276 -0.90561843 2.3039999
0.48481852 -0.90561843 2.3039999
0.49371427 -0.90561843 2.3039999
0.50483394 -0.90561849 2.3039999
0.51595366 -0.90561843 2.3039999
0.52484941 -0.90561843 2.3039999
0.533687 -0.90551996 2.30375
0.54322457 -0.90461588 2.3033333
0.42959264 -0.89529544 2.306
0.4781467 -0.89673984 2.3039999
0.48481852 -0.89673984 2.3039999
0.49415904 -0.89540803 2.3039999
0.50483394 -0.89452022 2.3039999
0.5159536 -0.89452022 2.3039999
0.52484941 -0.89452022 2.3039999
0.53374517 -0.89452022 2.3039999
0.54483837 -0.89447689 2.303889
0.55520171 -0.89486253 2.3025999
0.57499999 -0.89518303 2.3
0.65964967 -0.89335555 2.3010001
0.66050965 -0.89008087 2.3039999
0.43015155 -0.88311464 2.309
0.49593821 -0.8834219 2.3039999
0.50381291 -0.88363636 2.3033998
0.51595366 -0.8834219 2.3039999
0.52484941 -0.8834219 2.3039999
0.53374517 -0.8834219 2.3039999
0.54486483 -0.8834219 2.3039999
0.55638087 -0.88467646 2.3037999
0.56455344 -0.88512653 2.3026667
0.57410139 -0.88499904 2.3023334
0.58405346 -0.88465297 2.302875
0.59327602 -0.88265312 2.302
0.64632338 -0.88005495 2.3010001
0.65438175 -0.88376451 2.302
0.66362858 -0.88424349 2.3032498
0.6756376 -0.88062859 2.3025
0.68215638 -0.88043737 2.302
0.73294592 -0.88390559 2.3033333
0.75564718 -0.88062859 2.3025
0.7645362 -0.88062859 2.3025
0.44642955 -0.87118793 2.3010001
0.51536101 -0.87553567 2.3046665
0.52484941 -0.87454331 2.3039999
0.53374517 -0.87676299 2.3039999
0.54486483 -0.87676305 2.3039999
0.55400097 -0.87714356 2.3050001
0.5650034 -0.87695324 2.3045001
0.57499999 -0.87967241 2.3
0.5871197 -0.87676299 2.3039999
0.59720075 -0.8752408 2.3
0.60164094 -0.8752408 2.3
0.63716215 -0.87967241 2.3
0.64160228 -0.87967241 2.3
0.68719691 -0.87676299 2.3039999
0.69044399 -0.8752408 2.3
0.83696908 -0.8752408 2.3
0.81138515 -0.8675077 2.303
0.43649131 -0.93385547 2.319
0.44427794 -0.93373716 2.3176
0.43649131 -0.92491907 2.319
0.44320655 -0.92491907 2.319
0.43517375 -0.91321874 2.312
0.44258228 -0.9146992 2.3157499
0.43507963 -0.90411228 2.3115001
0.44214422 -0.90445411 2.3158002
0.43443245 -0.89282656 2.3140001
0.44243824 -0.89432663 2.3150001
0.42661583 -0.88279676 2.3140001
0.4356443 -0.88298798 2.3144999
0.44243824 -0.8854056 2.3150001
0.56038898 -0.88018787 2.313
0.57651544 -0.88094896 2.3150001
0.58296716 -0.88056839 2.3139999
0.59662646 -0.88094896 2.3150001
0.68630499 -0.88132948 2.316
0.43526787 -0.87442726 2.3125
0.44292828 -0.87746793 2.3136666
0.51975197 -0.87497401 2.3110001
0.56981176 -0.87648845 2.3150001
0.57751155 -0.87800288 2.319
0.43518147 -0.91594607 2.336
0.43288419 -0.90255493 2.348
0.4396525 -0.89352596 2.3599999
