# .PCD v0.7 - Point Cloud Data file format
VERSION 0.7
FIELDS x y z rgb
SIZE 4 4 4 4
TYPE F F F F
COUNT 1 1 1 1
WIDTH 1152
HEIGHT 1
VIEWPOINT 0 0 0 1 0 0 0
POINTS 1152
DATA ascii
-0.96056652 -0.5 -1.5703914 9.5302323e-39
-0.84969425 -0.5 -1.5276515 9.5302323e-39
-0.76993644 -0.5 -1.5531261 9.5302323e-39
-0.63918698 -0.5 -1.5583532 9.5302323e-39
-0.55064332 -0.5 -1.5441072 9.5302323e-39
-0.5 -2.9463708 -1.4349141 9.5302323e-39
-0.5 -2.8524747 -1.44713 9.5302323e-39
-0.5 -2.7408836 -1.4483184 9.5302323e-39
-0.5 -2.6602702 -1.4269621 9.5302323e-39
-0.5 -2.536581 -1.4613252 9.5302323e-39
-0.5 -2.4652791 -1.4693516 9.5302323e-39
-0.5 -2.3494852 -1.4394685 9.5302323e-39
-0.5 -2.2481849 -1.4598639 9.5302323e-39
-0.5 -2.1492991 -1.4549574 9.5302323e-39
-0.5 -2.0608199 -1.4410685 9.5302323e-39
-0.5 -1.9444005 -1.4523512 9.5302323e-39
-0.5 -1.8349838 -1.4319501 9.5302323e-39
-0.5 -1.7517598 -1.4669948 9.5302323e-39
-0.5 -1.6595358 -1.4289995 9.5302323e-39
-0.5 -1.5612967 -1.4358072 9.5302323e-39
-0.5 -1.4557422 -1.475669 9.5302323e-39
-0.5 -1.3713474 -1.4556208 9.5302323e-39
-0.5 -1.2436835 -1.4326745 9.5302323e-39
-0.5 -1.1500683 -1.4328821 9.5302323e-39
-0.5 -1.0440605 -1.4696265 9.5302323e-39
-0.5 -0.96118152 -1.444487 9.5302323e-39
-0.5 -0.85682404 -1.4383395 9.5302323e-39
-0.5 -0.74582464 -1.4463013 9.5302323e-39
-0.5 -0.65707552 -1.4596163 9.5302323e-39
-0.5 -0.54936308 -1.4399571 9.5302323e-39
-2.9586024 -0.5 -1.4321191 9.5302323e-39
-2.8407977 -0.5 -1.4421095 9.5302323e-39
-2.7351508 -0.5 -1.4332652 9.5302323e-39
-2.636199 -0.5 -1.4519895 9.5302323e-39
-2.5510705 -0.5 -1.451713 9.5302323e-39
-2.4430885 -0.5 -1.4541508 9.5302323e-39
-2.349082 -0.5 -1.4551787 9.5302323e-39
-2.2512066 -0.5 -1.4403111 9.5302323e-39
-2.1441751 -0.5 -1.4528674 9.5302323e-39
-2.043201 -0.5 -1.435424 9.5302323e-39
-1.9428076 -0.5 -1.4538451 9.5302323e-39
-1.8538995 -0.5 -1.4426699 9.5302323e-39
-1.7644165 -0.5 -1.42872 9.5302323e-39
-1.6576127 -0.5 -1.445888 9.5302323e-39
-1.5464188 -0.5 -1.4421355 9.5302323e-39
-1.4561195 -0.5 -1.4615059 9.5302323e-39
-1.3459059 -0.5 -1.4481519 9.5302323e-39
-1.2665509 -0.5 -1.4489529 9.5302323e-39
-1.1561859 -0.5 -1.4585869 9.5302323e-39
-1.026795 -0.5 -1.4759675 9.5302323e-39
-0.95601094 -0.5 -1.4409376 9.5302323e-39
-0.87235779 -0.5 -1.4394124 9.5302323e-39
-0.74798286 -0.5 -1.4356701 9.5302323e-39
-0.62702382 -0.5 -1.4546162 9.5302323e-39
-0.53901249 -0.5 -1.4519283 9.5302323e-39
-0.5 -2.943773 -1.3285748 9.5302323e-39
-0.5 -2.8379023 -1.3467602 9.5302323e-39
-0.5 -2.7461002 -1.3509543 9.5302323e-39
-0.5 -2.6427448 -1.3501991 9.5302323e-39
-0.5 -2.5345666 -1.3669453 9.5302323e-39
-0.5 -2.4270236 -1.3549156 9.5302323e-39
-0.5 -2.3197851 -1.3683077 9.5302323e-39
-0.5 -2.2607346 -1.348973 9.5302323e-39
-0.5 -2.1471531 -1.3780283 9.5302323e-39
-0.5 -2.0621555 -1.339872 9.5302323e-39
-0.5 -1.94134 -1.3373464 9.5302323e-39
-0.5 -1.8484454 -1.3394575 9.5302323e-39
-0.5 -1.7592984 -1.3695757 9.5302323e-39
-0.5 -1.6503611 -1.3429426 9.5302323e-39
-0.5 -1.5611774 -1.3432608 9.5302323e-39
-0.5 -1.4365413 -1.3775911 9.5302323e-39
-0.5 -1.3396111 -1.3455447 9.5302323e-39
-0.5 -1.2516241 -1.345001 9.5302323e-39
-0.5 -1.1579486 -1.3442615 9.5302323e-39
-0.5 -1.0487431 -1.3312571 9.5302323e-39
-0.5 -0.95313972 -1.3511204 9.5302323e-39
-0.5 -0.85481179 -1.3537838 9.5302323e-39
-0.5 -0.75995648 -1.3447484 9.5302323e-39
-0.5 -0.64607882 -1.3697253 9.5302323e-39
-0.5 -0.57820278 -1.3532619 9.5302323e-39
-2.9385054 -0.5 -1.3252416 9.5302323e-39
-2.8423564 -0.5 -1.3365297 9.5302323e-39
-2.767709 -0.5 -1.3422432 9.5302323e-39
-2.6560643 -0.5 -1.3316004 9.5302323e-39
-2.551209 -0.5 -1.3478445 9.5302323e-39
-2.4505932 -0.5 -1.3558779 9.5302323e-39
-2.3392777 -0.5 -1.3457803 9.5302323e-39
-2.2405651 -0.5 -1.3582104 9.5302323e-39
-2.1378019 -0.5 -1.3522202 9.5302323e-39
-2.0594935 -0.5 -1.3625383 9.5302323e-39
-1.9557672 -0.5 -1.3382636 9.5302323e-39
-1.8657124 -0.5 -1.3360896 9.5302323e-39
-1.7416492 -0.5 -1.3747061 9.5302323e-39
-1.6592692 -0.5 -1.3597891 9.5302323e-39
-1.5370517 -0.5 -1.3644421 9.5302323e-39
-1.4464113 -0.5 -1.3366417 9.5302323e-39
-1.3426117 -0.5 -1.3418095 9.5302323e-39
-1.2504665 -0.5 -1.362219 9.5302323e-39
-1.1492394 -0.5 -1.3459203 9.5302323e-39
-1.0643079 -0.5 -1.3732153 9.5302323e-39
-0.95833832 -0.5 -1.336349 9.5302323e-39
-0.85970497 -0.5 -1.3470204 9.5302323e-39
-0.7582584 -0.5 -1.3351933 9.5302323e-39
-0.63697982 -0.5 -1.3542275 9.5302323e-39
-0.56192899 -0.5 -1.363979 9.5302323e-39
-0.5 -2.966228 -1.2552593 9.5302323e-39
-0.5 -2.8412199 -1.280652 9.5302323e-39
-0.5 -2.7597051 -1.2422272 9.5302323e-39
-0.5 -2.6478136 -1.2384018 9.5302323e-39
-0.5 -2.5506461 -1.2587074 9.5302323e-39
-0.5 -2.4544811 -1.2542975 9.5302323e-39
-0.5 -2.3520398 -1.258189 9.5302323e-39
-0.5 -2.2355921 -1.2489269 9.5302323e-39
-0.5 -2.1466496 -1.2588836 9.5302323e-39
-0.5 -2.0570054 -1.2190764 9.5302323e-39
-0.5 -1.950501 -1.2507669 9.5302323e-39
-0.5 -1.855792 -1.2513297 9.5302323e-39
-0.5 -1.7572379 -1.2461567 9.5302323e-39
-0.5 -1.6597378 -1.2539533 9.5302323e-39
-0.5 -1.5351371 -1.2455091 9.5302323e-39
-0.5 -1.4375867 -1.2583842 9.5302323e-39
-0.5 -1.3596233 -1.2578336 9.5302323e-39
-0.5 -1.2621772 -1.2420431 9.5302323e-39
-0.5 -1.1401454 -1.2461194 9.5302323e-39
-0.5 -1.0553511 -1.256887 9.5302323e-39
-0.5 -0.9409849 -1.2689763 9.5302323e-39
-0.5 -0.85410482 -1.2699848 9.5302323e-39
-0.5 -0.75470543 -1.2490362 9.5302323e-39
-0.5 -0.64922929 -1.245827 9.5302323e-39
-0.5 -0.55109787 -1.2730566 9.5302323e-39
-2.9323323 -0.5 -1.2498626 9.5302323e-39
-2.8408458 -0.5 -1.2333401 9.5302323e-39
-2.7412887 -0.5 -1.2692237 9.5302323e-39
-2.6372204 -0.5 -1.230082 9.5302323e-39
-2.5476651 -0.5 -1.2383529 9.5302323e-39
-2.4667606 -0.5 -1.244666 9.5302323e-39
-2.3255503 -0.5 -1.2472051 9.5302323e-39
-2.2386458 -0.5 -1.2487414 9.5302323e-39
-2.1665277 -0.5 -1.2735566 9.5302323e-39
-2.0529282 -0.5 -1.2561792 9.5302323e-39
-1.9552515 -0.5 -1.2436618 9.5302323e-39
-1.8506434 -0.5 -1.2333282 9.5302323e-39
-1.748194 -0.5 -1.231915 9.5302323e-39
-1.6570477 -0.5 -1.2367967 9.5302323e-39
-1.5545233 -0.5 -1.2534521 9.5302323e-39
-1.4553603 -0.5 -1.2451407 9.5302323e-39
-1.3408326 -0.5 -1.2654092 9.5302323e-39
-1.2823976 -0.5 -1.2556937 9.5302323e-39
-1.1504381 -0.5 -1.2408005 9.5302323e-39
-1.0542518 -0.5 -1.2482748 9.5302323e-39
-0.94594002 -0.5 -1.2563181 9.5302323e-39
-0.84703487 -0.5 -1.2586943 9.5302323e-39
-0.75166982 -0.5 -1.2449304 9.5302323e-39
-0.64721489 -0.5 -1.2532305 9.5302323e-39
-0.54769957 -0.5 -1.2547665 9.5302323e-39
-0.5 -2.9534256 -1.1454431 9.5302323e-39
-0.5 -2.8370903 -1.1451925 9.5302323e-39
-0.5 -2.7642019 -1.1874961 9.5302323e-39
-0.5 -2.6403918 -1.1391129 9.5302323e-39
-0.5 -2.5713022 -1.1341528 9.5302323e-39
-0.5 -2.4686413 -1.160651 9.5302323e-39
-0.5 -2.3537538 -1.1441604 9.5302323e-39
-0.5 -2.2542055 -1.1401615 9.5302323e-39
-0.5 -2.1498692 -1.1425729 9.5302323e-39
-0.5 -2.043731 -1.1507666 9.5302323e-39
-0.5 -1.9352286 -1.1410787 9.5302323e-39
-0.5 -1.8593398 -1.1470307 9.5302323e-39
-0.5 -1.7657673 -1.1507984 9.5302323e-39
-0.5 -1.6562494 -1.1352922 9.5302323e-39
-0.5 -1.554898 -1.1580966 9.5302323e-39
-0.5 -1.439639 -1.1459434 9.5302323e-39
-0.5 -1.3541088 -1.1460216 9.5302323e-39
-0.5 -1.2529259 -1.14247 9.5302323e-39
-0.5 -1.1371967 -1.1550852 9.5302323e-39
-0.5 -1.0440705 -1.1527562 9.5302323e-39
-0.5 -0.94346911 -1.1442651 9.5302323e-39
-0.5 -0.84334463 -1.1541272 9.5302323e-39
-0.5 -0.73787189 -1.1427093 9.5302323e-39
-0.5 -0.64462405 -1.1550511 9.5302323e-39
-0.5 -0.55877078 -1.1520083 9.5302323e-39
-2.9328055 -0.5 -1.1446723 9.5302323e-39
-2.8396735 -0.5 -1.1208471 9.5302323e-39
-2.7585437 -0.5 -1.1511022 9.5302323e-39
-2.6553133 -0.5 -1.1514677 9.5302323e-39
-2.548923 -0.5 -1.151395 9.5302323e-39
-2.459281 -0.5 -1.1647308 9.5302323e-39
-2.3474765 -0.5 -1.1422237 9.5302323e-39
-2.2311039 -0.5 -1.175384 9.5302323e-39
-2.1397543 -0.5 -1.1569072 9.5302323e-39
-2.047591 -0.5 -1.15202 9.5302323e-39
-1.9621198 -0.5 -1.1425782 9.5302323e-39
-1.8444691 -0.5 -1.1500337 9.5302323e-39
-1.7415258 -0.5 -1.1366366 9.5302323e-39
-1.6362362 -0.5 -1.1497576 9.5302323e-39
-1.566888 -0.5 -1.1628268 9.5302323e-39
-1.4520767 -0.5 -1.149404 9.5302323e-39
-1.3540527 -0.5 -1.1680349 9.5302323e-39
-1.245568 -0.5 -1.1554794 9.5302323e-39
-1.1359779 -0.5 -1.1508151 9.5302323e-39
-1.0511206 -0.5 -1.1490446 9.5302323e-39
-0.95619965 -0.5 -1.1484308 9.5302323e-39
-0.84988868 -0.5 -1.1430153 9.5302323e-39
-0.7627458 -0.5 -1.1440855 9.5302323e-39
-0.65287352 -0.5 -1.1557599 9.5302323e-39
-0.54744816 -0.5 -1.1489888 9.5302323e-39
-0.5 -2.9762669 -1.0629523 9.5302323e-39
-0.5 -2.8532419 -1.0578771 9.5302323e-39
-0.5 -2.7566056 -1.048425 9.5302323e-39
-0.5 -2.6585674 -1.0396651 9.5302323e-39
-0.5 -2.5588531 -1.0309484 9.5302323e-39
-0.5 -2.459326 -1.0392045 9.5302323e-39
-0.5 -2.3494065 -1.0530604 9.5302323e-39
-0.5 -2.2519057 -1.0609639 9.5302323e-39
-0.5 -2.1476512 -1.0444049 9.5302323e-39
-0.5 -2.0325258 -1.0502168 9.5302323e-39
-0.5 -1.9708389 -1.0415736 9.5302323e-39
-0.5 -1.8617351 -1.0495591 9.5302323e-39
-0.5 -1.7475876 -1.0331501 9.5302323e-39
-0.5 -1.6433498 -1.0513686 9.5302323e-39
-0.5 -1.5358496 -1.0691445 9.5302323e-39
-0.5 -1.4626433 -1.0416149 9.5302323e-39
-0.5 -1.3521867 -1.0680686 9.5302323e-39
-0.5 -1.2431163 -1.0597556 9.5302323e-39
-0.5 -1.1577049 -1.0365633 9.5302323e-39
-0.5 -1.0415574 -1.0527203 9.5302323e-39
-0.5 -0.95586085 -1.0611203 9.5302323e-39
-0.5 -0.84639943 -1.0621635 9.5302323e-39
-0.5 -0.7415368 -1.0610623 9.5302323e-39
-0.5 -0.63152379 -1.0343646 9.5302323e-39
-0.5 -0.53247982 -1.0583766 9.5302323e-39
-2.9660385 -0.5 -1.0472177 9.5302323e-39
-2.8628409 -0.5 -1.0459737 9.5302323e-39
-2.7485514 -0.5 -1.0590451 9.5302323e-39
-2.6494622 -0.5 -1.0562072 9.5302323e-39
-2.5550609 -0.5 -1.0682043 9.5302323e-39
-2.4581361 -0.5 -1.0588207 9.5302323e-39
-2.3511612 -0.5 -1.0544327 9.5302323e-39
-2.227376 -0.5 -1.0406049 9.5302323e-39
-2.155232 -0.5 -1.0574354 9.5302323e-39
-2.0204923 -0.5 -1.0315956 9.5302323e-39
-1.940784 -0.5 -1.0373831 9.5302323e-39
-1.8443285 -0.5 -1.0272508 9.5302323e-39
-1.765823 -0.5 -1.0454106 9.5302323e-39
-1.6412886 -0.5 -1.0427909 9.5302323e-39
-1.5685655 -0.5 -1.046245 9.5302323e-39
-1.4546282 -0.5 -1.0475504 9.5302323e-39
-1.3395905 -0.5 -1.0594093 9.5302323e-39
-1.2265543 -0.5 -1.0549715 9.5302323e-39
-1.1354456 -0.5 -1.0562142 9.5302323e-39
-1.0434496 -0.5 -1.0247964 9.5302323e-39
-0.94305176 -0.5 -1.0510651 9.5302323e-39
-0.83329159 -0.5 -1.0442646 9.5302323e-39
-0.73435754 -0.5 -1.0601736 9.5302323e-39
-0.66810089 -0.5 -1.0556433 9.5302323e-39
-0.56289804 -0.5 -1.0449884 9.5302323e-39
-0.5 -2.9396715 -0.96212876 9.5302323e-39
-0.5 -2.8480246 -0.9549883 9.5302323e-39
-0.5 -2.7559581 -0.95694607 9.5302323e-39
-0.5 -2.6578271 -0.94461781 9.5302323e-39
-0.5 -2.5367353 -0.96595591 9.5302323e-39
-0.5 -2.4531248 -0.94798034 9.5302323e-39
-0.5 -2.3732023 -0.93866622 9.5302323e-39
-0.5 -2.2441244 -0.95385426 9.5302323e-39
-0.5 -2.160434 -0.94686037 9.5302323e-39
-0.5 -2.0389509 -0.95197845 9.5302323e-39
-0.5 -1.9282165 -0.95152837 9.5302323e-39
-0.5 -1.846068 -0.95874637 9.5302323e-39
-0.5 -1.7539691 -0.94194382 9.5302323e-39
-0.5 -1.6488652 -0.94533497 9.5302323e-39
-0.5 -1.5543853 -0.95796877 9.5302323e-39
-0.5 -1.4460144 -0.94488728 9.5302323e-39
-0.5 -1.3598287 -0.95688373 9.5302323e-39
-0.5 -1.2576175 -0.96676153 9.5302323e-39
-0.5 -1.1572369 -0.94455498 9.5302323e-39
-0.5 -1.044037 -0.93533349 9.5302323e-39
-0.5 -0.94591331 -0.94261235 9.5302323e-39
-0.5 -0.84756225 -0.97777438 9.5302323e-39
-0.5 -0.77223462 -0.95952207 9.5302323e-39
-0.5 -0.64496744 -0.96958536 9.5302323e-39
-0.5 -0.52649266 -0.95761669 9.5302323e-39
-2.9624646 -0.5 -0.94798219 9.5302323e-39
-2.8490207 -0.5 -0.92675447 9.5302323e-39
-2.7540805 -0.5 -0.94358373 9.5302323e-39
-2.656399 -0.5 -0.95659578 9.5302323e-39
-2.5475895 -0.5 -0.96180129 9.5302323e-39
-2.4473732 -0.5 -0.95705307 9.5302323e-39
-2.346879 -0.5 -0.94322902 9.5302323e-39
-2.2405851 -0.5 -0.94734371 9.5302323e-39
-2.1449769 -0.5 -0.95783669 9.5302323e-39
-2.0554137 -0.5 -0.96136469 9.5302323e-39
-1.9218117 -0.5 -0.95372868 9.5302323e-39
-1.8335289 -0.5 -0.94786835 9.5302323e-39
-1.7574495 -0.5 -0.94247824 9.5302323e-39
-1.6499563 -0.5 -0.96985847 9.5302323e-39
-1.5526453 -0.5 -0.94249362 9.5302323e-39
-1.4340795 -0.5 -0.94444048 9.5302323e-39
-1.3680348 -0.5 -0.94350696 9.5302323e-39
-1.2426643 -0.5 -0.94095755 9.5302323e-39
-1.1562036 -0.5 -0.95178044 9.5302323e-39
-1.0576644 -0.5 -0.95378637 9.5302323e-39
-0.94461346 -0.5 -0.94127631 9.5302323e-39
-0.854339 -0.5 -0.95907891 9.5302323e-39
-0.75596434 -0.5 -0.96550101 9.5302323e-39
-0.63519067 -0.5 -0.93584919 9.5302323e-39
-0.56424838 -0.5 -0.93644094 9.5302323e-39
-0.5 -2.9155283 -0.88779783 9.5302323e-39
-0.5 -2.8649147 -0.84385228 9.5302323e-39
-0.5 -2.7444682 -0.86980957 9.5302323e-39
-0.5 -2.6523142 -0.84223604 9.5302323e-39
-0.5 -2.5444098 -0.8528862 9.5302323e-39
-0.5 -2.4332151 -0.83750945 9.5302323e-39
-0.5 -2.3470721 -0.83753276 9.5302323e-39
-0.5 -2.2411363 -0.83720183 9.5302323e-39
-0.5 -2.1584911 -0.8559432 9.5302323e-39
-0.5 -2.0469379 -0.85827178 9.5302323e-39
-0.5 -1.9464535 -0.83935142 9.5302323e-39
-0.5 -1.8503567 -0.85404336 9.5302323e-39
-0.5 -1.7346443 -0.86825943 9.5302323e-39
-0.5 -1.657077 -0.84861887 9.5302323e-39
-0.5 -1.5636156 -0.84699714 9.5302323e-39
-0.5 -1.45265 -0.83800727 9.5302323e-39
-0.5 -1.3427866 -0.84463876 9.5302323e-39
-0.5 -1.2654226 -0.86701423 9.5302323e-39
-0.5 -1.165314 -0.85332388 9.5302323e-39
-0.5 -1.04131 -0.84198922 9.5302323e-39
-0.5 -0.96155405 -0.85726815 9.5302323e-39
-0.5 -0.8512646 -0.83199227 9.5302323e-39
-0.5 -0.7467863 -0.82604551 9.5302323e-39
-0.5 -0.65762055 -0.84852833 9.5302323e-39
-0.5 -0.54426491 -0.85165459 9.5302323e-39
-2.9726424 -0.5 -0.8569715 9.5302323e-39
-2.8462188 -0.5 -0.85301524 9.5302323e-39
-2.7447655 -0.5 -0.84705448 9.5302323e-39
-2.6359136 -0.5 -0.88962096 9.5302323e-39
-2.5557404 -0.5 -0.84107941 9.5302323e-39
-2.4422927 -0.5 -0.85028684 9.5302323e-39
-2.3569202 -0.5 -0.85504693 9.5302323e-39
-2.2499084 -0.5 -0.84991199 9.5302323e-39
-2.1490216 -0.5 -0.83305514 9.5302323e-39
-2.0553312 -0.5 -0.84916705 9.5302323e-39
-1.9633514 -0.5 -0.84434193 9.5302323e-39
-1.8559006 -0.5 -0.84034878 9.5302323e-39
-1.7478675 -0.5 -0.83508086 9.5302323e-39
-1.6429572 -0.5 -0.84119982 9.5302323e-39
-1.5560645 -0.5 -0.85215127 9.5302323e-39
-1.4527407 -0.5 -0.84021598 9.5302323e-39
-1.3495047 -0.5 -0.84540415 9.5302323e-39
-1.2310029 -0.5 -0.85837579 9.5302323e-39
-1.1693773 -0.5 -0.84137613 9.5302323e-39
-1.0572735 -0.5 -0.85666859 9.5302323e-39
-0.94795525 -0.5 -0.86828291 9.5302323e-39
-0.8539387 -0.5 -0.86911452 9.5302323e-39
-0.75638837 -0.5 -0.85079706 9.5302323e-39
-0.67183018 -0.5 -0.87233424 9.5302323e-39
-0.559264 -0.5 -0.84772652 9.5302323e-39
-0.5 -2.9745526 -0.7242564 9.5302323e-39
-0.5 -2.8456624 -0.7342394 9.5302323e-39
-0.5 -2.7458262 -0.7430523 9.5302323e-39
-0.5 -2.6337261 -0.74117106 9.5302323e-39
-0.5 -2.5487409 -0.74927998 9.5302323e-39
-0.5 -2.45155 -0.74216193 9.5302323e-39
-0.5 -2.3672001 -0.72580129 9.5302323e-39
-0.5 -2.2412066 -0.74589795 9.5302323e-39
-0.5 -2.1593764 -0.74304199 9.5302323e-39
-0.5 -2.0690377 -0.74960077 9.5302323e-39
-0.5 -1.9304523 -0.76524639 9.5302323e-39
-0.5 -1.8292689 -0.75111246 9.5302323e-39
-0.5 -1.7619381 -0.7454769 9.5302323e-39
-0.5 -1.6509106 -0.74834216 9.5302323e-39
-0.5 -1.5467559 -0.75971597 9.5302323e-39
-0.5 -1.4640352 -0.75504178 9.5302323e-39
-0.5 -1.3528661 -0.72677737 9.5302323e-39
-0.5 -1.2655897 -0.7542057 9.5302323e-39
-0.5 -1.1538914 -0.75723982 9.5302323e-39
-0.5 -1.0508128 -0.75176936 9.5302323e-39
-0.5 -0.95419443 -0.75107384 9.5302323e-39
-0.5 -0.85495198 -0.74509603 9.5302323e-39
-0.5 -0.75099218 -0.77080554 9.5302323e-39
-0.5 -0.65249342 -0.74656552 9.5302323e-39
-0.5 -0.53995371 -0.72960716 9.5302323e-39
-2.9522727 -0.5 -0.75445741 9.5302323e-39
-2.8462803 -0.5 -0.73198378 9.5302323e-39
-2.7432096 -0.5 -0.74938756 9.5302323e-39
-2.6595936 -0.5 -0.72524118 9.5302323e-39
-2.5467231 -0.5 -0.77016437 9.5302323e-39
-2.4368653 -0.5 -0.74109709 9.5302323e-39
-2.3579688 -0.5 -0.7686618 9.5302323e-39
-2.2642324 -0.5 -0.74907988 9.5302323e-39
-2.1588173 -0.5 -0.74201119 9.5302323e-39
-2.0476038 -0.5 -0.73355371 9.5302323e-39
-1.9385494 -0.5 -0.75989765 9.5302323e-39
-1.8439943 -0.5 -0.73764551 9.5302323e-39
-1.7532299 -0.5 -0.73331654 9.5302323e-39
-1.6394101 -0.5 -0.72597539 9.5302323e-39
-1.5527431 -0.5 -0.75331253 9.5302323e-39
-1.4516678 -0.5 -0.76342815 9.5302323e-39
-1.3603301 -0.5 -0.74292767 9.5302323e-39
-1.2378759 -0.5 -0.73502094 9.5302323e-39
-1.1666608 -0.5 -0.72624004 9.5302323e-39
-1.0394651 -0.5 -0.74941385 9.5302323e-39
-0.95739341 -0.5 -0.76396346 9.5302323e-39
-0.85060102 -0.5 -0.75237167 9.5302323e-39
-0.75789267 -0.5 -0.75790459 9.5302323e-39
-0.6504668 -0.5 -0.76074702 9.5302323e-39
-0.54974157 -0.5 -0.76746362 9.5302323e-39
-0.5 -2.9401979 -0.64764029 9.5302323e-39
-0.5 -2.8427186 -0.66349715 9.5302323e-39
-0.5 -2.7195044 -0.6592809 9.5302323e-39
-0.5 -2.650979 -0.64989251 9.5302323e-39
-0.5 -2.5389876 -0.63688517 9.5302323e-39
-0.5 -2.4589963 -0.66484189 9.5302323e-39
-0.5 -2.3718996 -0.64797509 9.5302323e-39
-0.5 -2.2261143 -0.63547105 9.5302323e-39
-0.5 -2.1490791 -0.65709823 9.5302323e-39
-0.5 -2.0685048 -0.65561223 9.5302323e-39
-0.5 -1.9549798 -0.6612429 9.5302323e-39
-0.5 -1.8385402 -0.64669186 9.5302323e-39
-0.5 -1.7409662 -0.65549004 9.5302323e-39
-0.5 -1.6414895 -0.65629029 9.5302323e-39
-0.5 -1.5489844 -0.63279891 9.5302323e-39
-0.5 -1.4642645 -0.6400395 9.5302323e-39
-0.5 -1.3541441 -0.64087397 9.5302323e-39
-0.5 -1.2258561 -0.6290797 9.5302323e-39
-0.5 -1.1800883 -0.64657241 9.5302323e-39
-0.5 -1.0533556 -0.65944684 9.5302323e-39
-0.5 -0.9566685 -0.65498233 9.5302323e-39
-0.5 -0.86877787 -0.6329841 9.5302323e-39
-0.5 -0.74383736 -0.66553158 9.5302323e-39
-0.5 -0.64964533 -0.65416288 9.5302323e-39
-0.5 -0.54188555 -0.63847268 9.5302323e-39
-2.9453628 -0.5 -0.6536653 9.5302323e-39
-2.8452194 -0.5 -0.63237292 9.5302323e-39
-2.7522268 -0.5 -0.6570431 9.5302323e-39
-2.6550686 -0.5 -0.64569807 9.5302323e-39
-2.5744784 -0.5 -0.65515935 9.5302323e-39
-2.4472518 -0.5 -0.61942184 9.5302323e-39
-2.3550067 -0.5 -0.63904047 9.5302323e-39
-2.2486439 -0.5 -0.65123224 9.5302323e-39
-2.150274 -0.5 -0.65995806 9.5302323e-39
-2.0547364 -0.5 -0.64133257 9.5302323e-39
-1.9542663 -0.5 -0.6371606 9.5302323e-39
-1.8451756 -0.5 -0.6506049 9.5302323e-39
-1.7481515 -0.5 -0.63511312 9.5302323e-39
-1.6514013 -0.5 -0.66585314 9.5302323e-39
-1.54177 -0.5 -0.65631944 9.5302323e-39
-1.4421867 -0.5 -0.67432708 9.5302323e-39
-1.3582866 -0.5 -0.64708841 9.5302323e-39
-1.2516354 -0.5 -0.62700272 9.5302323e-39
-1.1403074 -0.5 -0.64521748 9.5302323e-39
-1.0267389 -0.5 -0.64481139 9.5302323e-39
-0.95359999 -0.5 -0.65299964 9.5302323e-39
-0.85589975 -0.5 -0.64823622 9.5302323e-39
-0.74960494 -0.5 -0.64021647 9.5302323e-39
-0.6479345 -0.5 -0.6425333 9.5302323e-39
-0.55241197 -0.5 -0.64233607 9.5302323e-39
-0.5 -2.9443862 -0.54847896 9.5302323e-39
-0.5 -2.8488288 -0.53517658 9.5302323e-39
-0.5 -2.7569969 -0.56435311 9.5302323e-39
-0.5 -2.6479647 -0.54761046 9.5302323e-39
-0.5 -2.5464518 -0.55794007 9.5302323e-39
-0.5 -2.443809 -0.5424912 9.5302323e-39
-0.5 -2.3357639 -0.55313551 9.5302323e-39
-0.5 -2.2448645 -0.5486058 9.5302323e-39
-0.5 -2.1512046 -0.56690669 9.5302323e-39
-0.5 -2.0447435 -0.54484367 9.5302323e-39
-0.5 -1.9542794 -0.5464288 9.5302323e-39
-0.5 -1.8411556 -0.54446739 9.5302323e-39
-0.5 -1.7440368 -0.54281908 9.5302323e-39
-0.5 -1.6464554 -0.55725652 9.5302323e-39
-0.5 -1.5359657 -0.56666648 9.5302323e-39
-0.5 -1.4375352 -0.56007028 9.5302323e-39
-0.5 -1.3568158 -0.53084362 9.5302323e-39
-0.5 -1.2541236 -0.5714485 9.5302323e-39
-0.5 -1.1597956 -0.54516113 9.5302323e-39
-0.5 -1.0357467 -0.55685037 9.5302323e-39
-0.5 -0.9586432 -0.56194663 9.5302323e-39
-0.5 -0.84255916 -0.56203175 9.5302323e-39
-0.5 -0.76316124 -0.53942204 9.5302323e-39
-0.5 -0.64266121 -0.55921948 9.5302323e-39
-0.5 -0.52186388 -0.54097921 9.5302323e-39
-2.9640436 -0.5 -0.52761489 9.5302323e-39
-2.8553085 -0.5 -0.52446908 9.5302323e-39
-2.7507749 -0.5 -0.54860312 9.5302323e-39
-2.6458187 -0.5 -0.54724729 9.5302323e-39
-2.5549357 -0.5 -0.53871369 9.5302323e-39
-2.4170213 -0.5 -0.53109372 9.5302323e-39
-2.3416035 -0.5 -0.55526793 9.5302323e-39
-2.2390289 -0.5 -0.54380637 9.5302323e-39
-2.1459756 -0.5 -0.53857565 9.5302323e-39
-2.0430253 -0.5 -0.54418623 9.5302323e-39
-1.9371371 -0.5 -0.55044574 9.5302323e-39
-1.8358659 -0.5 -0.54498482 9.5302323e-39
-1.7491511 -0.5 -0.54936457 9.5302323e-39
-1.6533555 -0.5 -0.55671012 9.5302323e-39
-1.5452005 -0.5 -0.55946082 9.5302323e-39
-1.4345998 -0.5 -0.5297429 9.5302323e-39
-1.3544762 -0.5 -0.53553462 9.5302323e-39
-1.2579328 -0.5 -0.55536252 9.5302323e-39
-1.1323028 -0.5 -0.54545522 9.5302323e-39
-1.0404464 -0.5 -0.52126861 9.5302323e-39
-0.95088059 -0.5 -0.55436927 9.5302323e-39
-0.84341925 -0.5 -0.54679459 9.5302323e-39
-0.74886668 -0.5 -0.56222904 9.5302323e-39
-0.64096111 -0.5 -0.54348493 9.5302323e-39
-0.5479573 -0.5 -0.55846965 9.5302323e-39
-0.5 -2.9629214 -0.46799526 9.5302323e-39
-0.5 -2.8499024 -0.45591685 9.5302323e-39
-0.5 -2.7414045 -0.45449448 9.5302323e-39
-0.5 -2.6396878 -0.43624386 9.5302323e-39
-0.5 -2.5475962 -0.46590927 9.5302323e-39
-0.5 -2.4707594 -0.4631733 9.5302323e-39
-0.5 -2.345088 -0.44341102 9.5302323e-39
-0.5 -2.2303762 -0.43152353 9.5302323e-39
-0.5 -2.1322563 -0.45512789 9.5302323e-39
-0.5 -2.0422699 -0.43684098 9.5302323e-39
-0.5 -1.9450226 -0.43557468 9.5302323e-39
-0.5 -1.8558068 -0.45871633 9.5302323e-39
-0.5 -1.7539887 -0.44811499 9.5302323e-39
-0.5 -1.6545571 -0.45833611 9.5302323e-39
-0.5 -1.5561856 -0.43234968 9.5302323e-39
-0.5 -1.4439812 -0.4390997 9.5302323e-39
-0.5 -1.3263426 -0.43742582 9.5302323e-39
-0.5 -1.2558409 -0.46957541 9.5302323e-39
-0.5 -1.1509503 -0.45587587 9.5302323e-39
-0.5 -1.0526558 -0.46516287 9.5302323e-39
-0.5 -0.95022386 -0.46337199 9.5302323e-39
-0.5 -0.86546344 -0.42655891 9.5302323e-39
-0.5 -0.73456109 -0.45980608 9.5302323e-39
-0.5 -0.6439845 -0.44892633 9.5302323e-39
-0.5 -0.54117209 -0.46327424 9.5302323e-39
-2.9473479 -0.5 -0.46047375 9.5302323e-39
-2.847177 -0.5 -0.4665094 9.5302323e-39
-2.7502129 -0.5 -0.4567349 9.5302323e-39
-2.6617134 -0.5 -0.44764364 9.5302323e-39
-2.5377879 -0.5 -0.44865644 9.5302323e-39
-2.4882066 -0.5 -0.44062802 9.5302323e-39
-2.3522983 -0.5 -0.44044733 9.5302323e-39
-2.2582324 -0.5 -0.45594433 9.5302323e-39
-2.1351991 -0.5 -0.44627857 9.5302323e-39
-2.0306587 -0.5 -0.46405417 9.5302323e-39
-1.9707223 -0.5 -0.4353058 9.5302323e-39
-1.8533725 -0.5 -0.45771471 9.5302323e-39
-1.6506379 -0.5 -0.44632727 9.5302323e-39
-1.5495747 -0.5 -0.44002232 9.5302323e-39
-1.4449059 -0.5 -0.44685236 9.5302323e-39
-1.3430315 -0.5 -0.47624567 9.5302323e-39
-1.2488757 -0.5 -0.43115479 9.5302323e-39
-1.143523 -0.5 -0.45054659 9.5302323e-39
-1.0391129 -0.5 -0.44665802 9.5302323e-39
-0.95375901 -0.5 -0.45441452 9.5302323e-39
-0.86337906 -0.5 -0.43743852 9.5302323e-39
-0.74433279 -0.5 -0.44123003 9.5302323e-39
-0.654145 -0.5 -0.45925611 9.5302323e-39
-0.56308746 -0.5 -0.44389015 9.5302323e-39
-0.5 -2.9893746 -0.30498582 9.5302323e-39
-0.5 -2.8515472 -0.36189041 9.5302323e-39
-0.5 -2.753149 -0.36977348 9.5302323e-39
-0.5 -2.6461699 -0.34864953 9.5302323e-39
-0.5 -2.5312312 -0.36848703 9.5302323e-39
-0.5 -2.4728987 -0.37100697 9.5302323e-39
-0.5 -2.3447556 -0.33664984 9.5302323e-39
-0.5 -2.2604864 -0.34996438 9.5302323e-39
-0.5 -2.1464608 -0.36044359 9.5302323e-39
-0.5 -2.0410185 -0.35687825 9.5302323e-39
-0.5 -1.9567279 -0.36070412 9.5302323e-39
-0.5 -1.8647995 -0.33385071 9.5302323e-39
-0.5 -1.7631401 -0.35698721 9.5302323e-39
-0.5 -1.651482 -0.35614994 9.5302323e-39
-0.5 -1.5508072 -0.34118408 9.5302323e-39
-0.5 -1.4256842 -0.34845531 9.5302323e-39
-0.5 -1.3724221 -0.32312325 9.5302323e-39
-0.5 -1.2570202 -0.34078649 9.5302323e-39
-0.5 -1.1680131 -0.35942355 9.5302323e-39
-0.5 -1.0500602 -0.35849437 9.5302323e-39
-0.5 -0.95560265 -0.34353423 9.5302323e-39
-0.5 -0.83858854 -0.35097805 9.5302323e-39
-0.5 -0.75004774 -0.34502795 9.5302323e-39
-0.5 -0.64848971 -0.34686023 9.5302323e-39
-0.5 -0.53373635 -0.34286648 9.5302323e-39
-2.9664073 -0.5 -0.33274078 9.5302323e-39
-2.8623383 -0.5 -0.36089545 9.5302323e-39
-2.7471077 -0.5 -0.34824362 9.5302323e-39
-2.6687031 -0.5 -0.36157861 9.5302323e-39
-2.5605168 -0.5 -0.35554591 9.5302323e-39
-2.4539719 -0.5 -0.37207192 9.5302323e-39
-2.3490372 -0.5 -0.34975877 9.5302323e-39
-2.2513156 -0.5 -0.34587759 9.5302323e-39
-2.1587536 -0.5 -0.33025861 9.5302323e-39
-2.0493953 -0.5 -0.35849443 9.5302323e-39
-1.958725 -0.5 -0.35220656 9.5302323e-39
-1.8530191 -0.5 -0.34688509 9.5302323e-39
-1.7531514 -0.5 -0.35252628 9.5302323e-39
-1.6331304 -0.5 -0.36387712 9.5302323e-39
-1.5306147 -0.5 -0.34109926 9.5302323e-39
-1.4381599 -0.5 -0.35916218 9.5302323e-39
-1.35457 -0.5 -0.35814187 9.5302323e-39
-1.2429428 -0.5 -0.33478186 9.5302323e-39
-1.1720288 -0.5 -0.34268141 9.5302323e-39
-1.0675751 -0.5 -0.32897779 9.5302323e-39
-0.96939743 -0.5 -0.34375083 9.5302323e-39
-0.83666563 -0.5 -0.34976524 9.5302323e-39
-0.73424858 -0.5 -0.3449361 9.5302323e-39
-0.68288934 -0.5 -0.3592599 9.5302323e-39
-0.5555253 -0.5 -0.35835701 9.5302323e-39
-0.5 -2.9391983 -0.2514703 9.5302323e-39
-0.5 -2.8586459 -0.24387705 9.5302323e-39
-0.5 -2.7546716 -0.26342219 9.5302323e-39
-0.5 -2.6554899 -0.25376329 9.5302323e-39
-0.5 -2.5339687 -0.25333771 9.5302323e-39
-0.5 -2.4526854 -0.25432077 9.5302323e-39
-0.5 -2.3469129 -0.23442177 9.5302323e-39
-0.5 -2.2442737 -0.25105625 9.5302323e-39
-0.5 -2.1503508 -0.25015718 9.5302323e-39
-0.5 -2.0382724 -0.26585683 9.5302323e-39
-0.5 -1.9660919 -0.22644405 9.5302323e-39
-0.5 -1.870921 -0.24256955 9.5302323e-39
-0.5 -1.7715446 -0.24733949 9.5302323e-39
-0.5 -1.6442189 -0.25305012 9.5302323e-39
-0.5 -1.5625342 -0.25711688 9.5302323e-39
-0.5 -1.4495809 -0.25599167 9.5302323e-39
-0.5 -1.3625921 -0.24719845 9.5302323e-39
-0.5 -1.224655 -0.25982118 9.5302323e-39
-0.5 -1.1536217 -0.2413422 9.5302323e-39
-0.5 -1.0683637 -0.26267132 9.5302323e-39
-0.5 -0.9428646 -0.2489271 9.5302323e-39
-0.5 -0.85723978 -0.24135311 9.5302323e-39
-0.5 -0.73987722 -0.25944361 9.5302323e-39
-0.5 -0.6739977 -0.25526917 9.5302323e-39
-0.5 -0.55140281 -0.25354353 9.5302323e-39
-2.939853 -0.5 -0.25896195 9.5302323e-39
-2.8404479 -0.5 -0.25638279 9.5302323e-39
-2.7586305 -0.5 -0.25790051 9.5302323e-39
-2.6521494 -0.5 -0.24501665 9.5302323e-39
-2.57654 -0.5 -0.28967795 9.5302323e-39
-2.4482112 -0.5 -0.25508988 9.5302323e-39
-2.3543053 -0.5 -0.24108186 9.5302323e-39
-2.2232423 -0.5 -0.25312972 9.5302323e-39
-2.1524107 -0.5 -0.25055638 9.5302323e-39
-2.0501933 -0.5 -0.23860042 9.5302323e-39
-1.9522322 -0.5 -0.25954789 9.5302323e-39
-1.8411045 -0.5 -0.24976161 9.5302323e-39
-1.7505957 -0.5 -0.25474706 9.5302323e-39
-1.624512 -0.5 -0.23379335 9.5302323e-39
-1.5436959 -0.5 -0.26889482 9.5302323e-39
-1.4369373 -0.5 -0.25297624 9.5302323e-39
-1.3476957 -0.5 -0.25662485 9.5302323e-39
-1.2621928 -0.5 -0.25098342 9.5302323e-39
-1.1434817 -0.5 -0.23774327 9.5302323e-39
-1.048038 -0.5 -0.25416273 9.5302323e-39
-0.93716067 -0.5 -0.24525639 9.5302323e-39
-0.87043935 -0.5 -0.24455415 9.5302323e-39
-0.73760128 -0.5 -0.26370466 9.5302323e-39
-0.65534508 -0.5 -0.26011944 9.5302323e-39
-0.55899876 -0.5 -0.24792126 9.5302323e-39
-0.5 -2.9526639 -0.18060765 9.5302323e-39
-0.5 -2.8352458 -0.1449177 9.5302323e-39
-0.5 -2.7423811 -0.15464833 9.5302323e-39
-0.5 -2.637423 -0.16246077 9.5302323e-39
-0.5 -2.5406301 -0.15983115 9.5302323e-39
-0.5 -2.4596639 -0.15929574 9.5302323e-39
-0.5 -2.3377907 -0.15285845 9.5302323e-39
-0.5 -2.2347915 -0.14011011 9.5302323e-39
-0.5 -2.147471 -0.15608718 9.5302323e-39
-0.5 -2.0476208 -0.14511487 9.5302323e-39
-0.5 -1.9657693 -0.15157074 9.5302323e-39
-0.5 -1.8279848 -0.13103773 9.5302323e-39
-0.5 -1.7384781 -0.13533984 9.5302323e-39
-0.5 -1.6640821 -0.14781639 9.5302323e-39
-0.5 -1.5466549 -0.14085916 9.5302323e-39
-0.5 -1.454419 -0.16021894 9.5302323e-39
-0.5 -1.3650022 -0.15519887 9.5302323e-39
-0.5 -1.2589747 -0.15099634 9.5302323e-39
-0.5 -1.1610138 -0.1521972 9.5302323e-39
-0.5 -1.0516744 -0.15671763 9.5302323e-39
-0.5 -0.9430092 -0.16024776 9.5302323e-39
-0.5 -0.85389179 -0.13589163 9.5302323e-39
-0.5 -0.74421751 -0.14230661 9.5302323e-39
-0.5 -0.63848227 -0.15191841 9.5302323e-39
-0.5 -0.54607403 -0.13666022 9.5302323e-39
-2.9446578 -0.5 -0.12843744 9.5302323e-39
-2.8537006 -0.5 -0.13090436 9.5302323e-39
-2.7561994 -0.5 -0.15183407 9.5302323e-39
-2.6371918 -0.5 -0.16688867 9.5302323e-39
-2.5311871 -0.5 -0.14158674 9.5302323e-39
-2.4491498 -0.5 -0.15767294 9.5302323e-39
-2.3574572 -0.5 -0.14471233 9.5302323e-39
-2.2459254 -0.5 -0.15619145 9.5302323e-39
-2.1365843 -0.5 -0.16028848 9.5302323e-39
-2.0352387 -0.5 -0.1651593 9.5302323e-39
-1.9680307 -0.5 -0.12761962 9.5302323e-39
-1.8681751 -0.5 -0.16439916 9.5302323e-39
-1.7517042 -0.5 -0.14801553 9.5302323e-39
-1.665854 -0.5 -0.14307515 9.5302323e-39
-1.5379173 -0.5 -0.139599 9.5302323e-39
-1.454551 -0.5 -0.16054204 9.5302323e-39
-1.3642092 -0.5 -0.13703038 9.5302323e-39
-1.2335341 -0.5 -0.14272363 9.5302323e-39
-1.1690162 -0.5 -0.14601214 9.5302323e-39
-1.0671271 -0.5 -0.15340726 9.5302323e-39
-0.92470044 -0.5 -0.15249601 9.5302323e-39
-0.85111856 -0.5 -0.17026146 9.5302323e-39
-0.74876261 -0.5 -0.14121896 9.5302323e-39
-0.6338551 -0.5 -0.15689348 9.5302323e-39
-0.52360094 -0.5 -0.12962504 9.5302323e-39
-0.5 -2.9402182 -0.061460376 9.5302323e-39
-0.5 -2.8594787 -0.057925757 9.5302323e-39
-0.5 -2.7617092 -0.069889933 9.5302323e-39
-0.5 -2.6496663 -0.063854098 9.5302323e-39
-0.5 -2.5318277 -0.0765929 9.5302323e-39
-0.5 -2.4598999 -0.047092717 9.5302323e-39
-0.5 -2.3446081 -0.044250887 9.5302323e-39
-0.5 -2.2422073 -0.053725794 9.5302323e-39
-0.5 -2.1609831 -0.051219303 9.5302323e-39
-0.5 -2.0425522 -0.043490447 9.5302323e-39
-0.5 -1.9369491 -0.039729282 9.5302323e-39
-0.5 -1.8571063 -0.059667155 9.5302323e-39
-0.5 -1.741608 -0.058980297 9.5302323e-39
-0.5 -1.6547365 -0.040623061 9.5302323e-39
-0.5 -1.5651743 -0.045073163 9.5302323e-39
-0.5 -1.4539272 -0.066534638 9.5302323e-39
-0.5 -1.3362797 -0.053042125 9.5302323e-39
-0.5 -1.269033 -0.059251439 9.5302323e-39
-0.5 -1.1468782 -0.068521202 9.5302323e-39
-0.5 -1.0496199 -0.04436744 9.5302323e-39
-0.5 -0.95480889 -0.057183079 9.5302323e-39
-0.5 -0.8622089 -0.05314637 9.5302323e-39
-0.5 -0.72717857 -0.054045219 9.5302323e-39
-0.5 -0.63761032 -0.026069492 9.5302323e-39
-0.5 -0.55529064 -0.054976087 9.5302323e-39
-2.9322395 -0.5 -0.056324765 9.5302323e-39
-2.8401418 -0.5 -0.045159187 9.5302323e-39
-2.7473586 -0.5 -0.037002426 9.5302323e-39
-2.6432133 -0.5 -0.047947958 9.5302323e-39
-2.5768092 -0.5 -0.08817555 9.5302323e-39
-2.4683173 -0.5 -0.064747356 9.5302323e-39
-2.3510542 -0.5 -0.053806368 9.5302323e-39
-2.265255 -0.5 -0.075059466 9.5302323e-39
-2.1570497 -0.5 -0.046961546 9.5302323e-39
-2.0412166 -0.5 -0.058609128 9.5302323e-39
-1.9547384 -0.5 -0.033489704 9.5302323e-39
-1.8250405 -0.5 -0.039478756 9.5302323e-39
-1.7496884 -0.5 -0.061230931 9.5302323e-39
-1.6352204 -0.5 -0.038128015 9.5302323e-39
-1.5332334 -0.5 -0.064168051 9.5302323e-39
-1.4487801 -0.5 -0.052376885 9.5302323e-39
-1.3428147 -0.5 -0.05029982 9.5302323e-39
-1.2499868 -0.5 -0.047599614 9.5302323e-39
-1.1588979 -0.5 -0.028439386 9.5302323e-39
-1.0473995 -0.5 -0.051522475 9.5302323e-39
-0.9678272 -0.5 -0.051641233 9.5302323e-39
-0.83830059 -0.5 -0.023779124 9.5302323e-39
-0.74296463 -0.5 -0.035898138 9.5302323e-39
-0.64235723 -0.5 -0.053712264 9.5302323e-39
-0.53941804 -0.5 -0.047023915 9.5302323e-39
-0.5 -2.9483297 0.037441436 9.5302323e-39
-0.5 -2.8587635 0.078740939 9.5302323e-39
-0.5 -2.7719629 0.048540741 9.5302323e-39
-0.5 -2.6359651 0.033191223 9.5302323e-39
-0.5 -2.5347021 0.066901706 9.5302323e-39
-0.5 -2.4071176 0.0689395 9.5302323e-39
-0.5 -2.3544667 0.06836915 9.5302323e-39
-0.5 -2.2474089 0.039194006 9.5302323e-39
-0.5 -2.151361 0.0634517 9.5302323e-39
-0.5 -2.0740726 0.063976206 9.5302323e-39
-0.5 -1.9438351 0.057548255 9.5302323e-39
-0.5 -1.8474224 0.023892064 9.5302323e-39
-0.5 -1.7522464 0.0393239 9.5302323e-39
-0.5 -1.6634864 0.086799286 9.5302323e-39
-0.5 -1.5373733 0.046522342 9.5302323e-39
-0.5 -1.4266981 0.042764362 9.5302323e-39
-0.5 -1.3433583 0.065311477 9.5302323e-39
-0.5 -1.2324371 0.049325142 9.5302323e-39
-0.5 -1.151588 0.034285106 9.5302323e-39
-0.5 -1.0672489 0.047754142 9.5302323e-39
-0.5 -0.94854414 0.042939108 9.5302323e-39
-0.5 -0.84826136 0.061838619 9.5302323e-39
-0.5 -0.75152153 0.042463735 9.5302323e-39
-0.5 -0.65103877 0.033638678 9.5302323e-39
-0.5 -0.5579446 0.058049954 9.5302323e-39
-2.9609346 -0.5 0.040074706 9.5302323e-39
-2.8741922 -0.5 0.052847557 9.5302323e-39
-2.7401102 -0.5 0.026703808 9.5302323e-39
-2.6476762 -0.5 0.047556322 9.5302323e-39
-2.547303 -0.5 0.053600371 9.5302323e-39
-2.4288878 -0.5 0.047021858 9.5302323e-39
-2.338659 -0.5 0.035305548 9.5302323e-39
-2.2334645 -0.5 0.051545545 9.5302323e-39
-2.148922 -0.5 0.037337087 9.5302323e-39
-2.0470531 -0.5 0.038692106 9.5302323e-39
-1.9457847 -0.5 0.052726921 9.5302323e-39
-1.8447819 -0.5 0.053580225 9.5302323e-39
-1.7328739 -0.5 0.038075645 9.5302323e-39
-1.654547 -0.5 0.051289048 9.5302323e-39
-1.566133 -0.5 0.056854267 9.5302323e-39
-1.4687787 -0.5 0.051621668 9.5302323e-39
-1.3482004 -0.5 0.045917001 9.5302323e-39
-1.2389472 -0.5 0.053607877 9.5302323e-39
-1.1621861 -0.5 0.078045771 9.5302323e-39
-1.0548929 -0.5 0.056165211 9.5302323e-39
-0.95442832 -0.5 0.056510091 9.5302323e-39
-0.84075707 -0.5 0.04398901 9.5302323e-39
-0.74649471 -0.5 0.045948617 9.5302323e-39
-0.65911978 -0.5 0.021356106 9.5302323e-39
-0.5539369 -0.5 0.051312648 9.5302323e-39
-0.5 -2.9507055 0.1433803 9.5302323e-39
-0.5 -2.8478687 0.14933528 9.5302323e-39
-0.5 -2.7543979 0.15025005 9.5302323e-39
-0.5 -2.6564791 0.1429009 9.5302323e-39
-0.5 -2.5413461 0.14856462 9.5302323e-39
-0.5 -2.4641223 0.15453556 9.5302323e-39
-0.5 -2.3595948 0.14651732 9.5302323e-39
-0.5 -2.2322493 0.18087532 9.5302323e-39
-0.5 -2.1500282 0.16225536 9.5302323e-39
-0.5 -2.034481 0.13581114 9.5302323e-39
-0.5 -1.9647409 0.12541966 9.5302323e-39
-0.5 -1.8354542 0.17085655 9.5302323e-39
-0.5 -1.7656931 0.14264598 9.5302323e-39
-0.5 -1.6347265 0.17208242 9.5302323e-39
-0.5 -1.5368454 0.1313386 9.5302323e-39
-0.5 -1.4420871 0.14291699 9.5302323e-39
-0.5 -1.3539521 0.15668163 9.5302323e-39
-0.5 -1.2579113 0.13720381 9.5302323e-39
-0.5 -1.1543305 0.14299007 9.5302323e-39
-0.5 -1.0316879 0.13394012 9.5302323e-39
-0.5 -0.95275939 0.15906426 9.5302323e-39
-0.5 -0.84068918 0.1324141 9.5302323e-39
-0.5 -0.76644671 0.1411745 9.5302323e-39
-0.5 -0.6516816 0.1473469 9.5302323e-39
-0.5 -0.54877937 0.14338535 9.5302323e-39
-2.9346361 -0.5 0.1646747 9.5302323e-39
-2.8704286 -0.5 0.1547889 9.5302323e-39
-2.7614012 -0.5 0.15424576 9.5302323e-39
-2.6246929 -0.5 0.12881958 9.5302323e-39
-2.5672216 -0.5 0.14560698 9.5302323e-39
-2.4734583 -0.5 0.14051381 9.5302323e-39
-2.3490312 -0.5 0.13695323 9.5302323e-39
-2.2552085 -0.5 0.13877873 9.5302323e-39
-2.1338034 -0.5 0.13907672 9.5302323e-39
-2.0456619 -0.5 0.12800676 9.5302323e-39
-1.9495561 -0.5 0.14564677 9.5302323e-39
-1.8460513 -0.5 0.13971199 9.5302323e-39
-1.7354842 -0.5 0.15789634 9.5302323e-39
-1.6496321 -0.5 0.15392654 9.5302323e-39
-1.5701087 -0.5 0.15602353 9.5302323e-39
-1.4559996 -0.5 0.14553244 9.5302323e-39
-1.3734146 -0.5 0.16490717 9.5302323e-39
-1.2527264 -0.5 0.16240287 9.5302323e-39
-1.1357982 -0.5 0.14137414 9.5302323e-39
-1.0361021 -0.5 0.17447825 9.5302323e-39
-0.96906418 -0.5 0.16567408 9.5302323e-39
-0.85673779 -0.5 0.13125142 9.5302323e-39
-0.76124913 -0.5 0.13496599 9.5302323e-39
-0.66229808 -0.5 0.15164578 9.5302323e-39
-0.53445625 -0.5 0.18808395 9.5302323e-39
-0.5 -2.9315665 0.24800327 9.5302323e-39
-0.5 -2.8362277 0.23273323 9.5302323e-39
-0.5 -2.7477496 0.23597342 9.5302323e-39
-0.5 -2.6557753 0.25367239 9.5302323e-39
-0.5 -2.5509229 0.24789464 9.5302323e-39
-0.5 -2.4531393 0.2078898 9.5302323e-39
-0.5 -2.3306935 0.24493819 9.5302323e-39
-0.5 -2.2620296 0.24305943 9.5302323e-39
-0.5 -2.1664271 0.25394019 9.5302323e-39
-0.5 -2.0347974 0.26303816 9.5302323e-39
-0.5 -1.9754586 0.2420142 9.5302323e-39
-0.5 -1.8678786 0.25373921 9.5302323e-39
-0.5 -1.7576408 0.25272453 9.5302323e-39
-0.5 -1.6537908 0.25633416 9.5302323e-39
-0.5 -1.54478 0.25111228 9.5302323e-39
-0.5 -1.4381084 0.28180507 9.5302323e-39
-0.5 -1.3419751 0.24695162 9.5302323e-39
-0.5 -1.2518461 0.21959351 9.5302323e-39
-0.5 -1.1504039 0.25840786 9.5302323e-39
-0.5 -1.0506104 0.2501744 9.5302323e-39
-0.5 -0.96885699 0.25765461 9.5302323e-39
-0.5 -0.84811115 0.25118935 9.5302323e-39
-0.5 -0.74474674 0.247594 9.5302323e-39
-0.5 -0.63671076 0.24824893 9.5302323e-39
-0.5 -0.56136954 0.27122545 9.5302323e-39
-2.9453211 -0.5 0.2406158 9.5302323e-39
-2.8570812 -0.5 0.25257999 9.5302323e-39
-2.7574401 -0.5 0.23406056 9.5302323e-39
-2.6658428 -0.5 0.24766223 9.5302323e-39
-2.5373693 -0.5 0.24541008 9.5302323e-39
-2.4528158 -0.5 0.24398144 9.5302323e-39
-2.3433819 -0.5 0.25812143 9.5302323e-39
-2.2324405 -0.5 0.25818622 9.5302323e-39
-2.1576614 -0.5 0.24425033 9.5302323e-39
-2.0513451 -0.5 0.26521158 9.5302323e-39
-1.9395436 -0.5 0.25778046 9.5302323e-39
-1.8288769 -0.5 0.22566921 9.5302323e-39
-1.7418554 -0.5 0.23631644 9.5302323e-39
-1.6412448 -0.5 0.25717807 9.5302323e-39
-1.5312741 -0.5 0.24907991 9.5302323e-39
-1.4407251 -0.5 0.26319686 9.5302323e-39
-1.3363891 -0.5 0.2671369 9.5302323e-39
-1.2469356 -0.5 0.2476204 9.5302323e-39
-1.1458151 -0.5 0.2315843 9.5302323e-39
-1.0449371 -0.5 0.2525056 9.5302323e-39
-0.95167005 -0.5 0.24898794 9.5302323e-39
-0.85153419 -0.5 0.2554574 9.5302323e-39
-0.74775541 -0.5 0.25964355 9.5302323e-39
-0.63855767 -0.5 0.25012144 9.5302323e-39
-0.55526066 -0.5 0.24457972 9.5302323e-39
-0.5 -2.9452612 0.36530188 9.5302323e-39
-0.5 -2.8385818 0.36567664 9.5302323e-39
-0.5 -2.7613766 0.3467344 9.5302323e-39
-0.5 -2.6651416 0.36681357 9.5302323e-39
-0.5 -2.5821724 0.38307652 9.5302323e-39
-0.5 -2.4435778 0.32726723 9.5302323e-39
-0.5 -2.3444483 0.34229937 9.5302323e-39
-0.5 -2.2424657 0.36159572 9.5302323e-39
-0.5 -2.1335635 0.3300654 9.5302323e-39
-0.5 -2.0439551 0.35019404 9.5302323e-39
-0.5 -1.9414011 0.35431135 9.5302323e-39
-0.5 -1.8624067 0.35682863 9.5302323e-39
-0.5 -1.7392871 0.35459086 9.5302323e-39
-0.5 -1.6457019 0.33805466 9.5302323e-39
-0.5 -1.5453888 0.34858063 9.5302323e-39
-0.5 -1.4573293 0.34967396 9.5302323e-39
-0.5 -1.3515091 0.34109387 9.5302323e-39
-0.5 -1.2394856 0.34061205 9.5302323e-39
-0.5 -1.1680607 0.35177928 9.5302323e-39
-0.5 -1.0311668 0.33578861 9.5302323e-39
-0.5 -0.95116061 0.36858454 9.5302323e-39
-0.5 -0.87654561 0.3384915 9.5302323e-39
-0.5 -0.75090402 0.33802575 9.5302323e-39
-0.5 -0.64725822 0.3331427 9.5302323e-39
-0.5 -0.55140007 0.33452347 9.5302323e-39
-2.9747386 -0.5 0.3091948 9.5302323e-39
-2.8433545 -0.5 0.36510244 9.5302323e-39
-2.7474668 -0.5 0.34622949 9.5302323e-39
-2.6503041 -0.5 0.33946058 9.5302323e-39
-2.5714791 -0.5 0.35508078 9.5302323e-39
-2.4434221 -0.5 0.34161845 9.5302323e-39
-2.3452952 -0.5 0.34663644 9.5302323e-39
-2.2449901 -0.5 0.34023592 9.5302323e-39
-2.1531417 -0.5 0.34959465 9.5302323e-39
-2.0586343 -0.5 0.36027312 9.5302323e-39
-1.9651181 -0.5 0.35714978 9.5302323e-39
-1.8462423 -0.5 0.34523878 9.5302323e-39
-1.7479932 -0.5 0.36487445 9.5302323e-39
-1.6444439 -0.5 0.32711357 9.5302323e-39
-1.553739 -0.5 0.33078134 9.5302323e-39
-1.459695 -0.5 0.35603979 9.5302323e-39
-1.3636715 -0.5 0.38122588 9.5302323e-39
-1.2509688 -0.5 0.34592336 9.5302323e-39
-1.1502732 -0.5 0.33862799 9.5302323e-39
-1.0256234 -0.5 0.35539332 9.5302323e-39
-0.93649036 -0.5 0.34635875 9.5302323e-39
-0.86218607 -0.5 0.33282906 9.5302323e-39
-0.74583048 -0.5 0.34640184 9.5302323e-39
-0.64661413 -0.5 0.33857158 9.5302323e-39
-0.54205716 -0.5 0.35608983 9.5302323e-39
-0.5 -2.9555397 0.44139874 9.5302323e-39
-0.5 -2.8472757 0.43547821 9.5302323e-39
-0.5 -2.7585971 0.43100846 9.5302323e-39
-0.5 -2.6458194 0.42535421 9.5302323e-39
-0.5 -2.5469589 0.46162212 9.5302323e-39
-0.5 -2.4575696 0.45212141 9.5302323e-39
-0.5 -2.3400433 0.46027961 9.5302323e-39
-0.5 -2.2391148 0.45245543 9.5302323e-39
-0.5 -2.153023 0.45930374 9.5302323e-39
-0.5 -2.0591614 0.43637076 9.5302323e-39
-0.5 -1.96444 0.44152653 9.5302323e-39
-0.5 -1.8556153 0.44929156 9.5302323e-39
-0.5 -1.7470648 0.44369522 9.5302323e-39
-0.5 -1.6502217 0.4587456 9.5302323e-39
-0.5 -1.5618596 0.45200667 9.5302323e-39
-0.5 -1.450605 0.46131146 9.5302323e-39
-0.5 -1.3736597 0.44574738 9.5302323e-39
-0.5 -1.2401243 0.44335961 9.5302323e-39
-0.5 -1.1470457 0.45524001 9.5302323e-39
-0.5 -1.0376837 0.46047536 9.5302323e-39
-0.5 -0.95706803 0.44122589 9.5302323e-39
-0.5 -0.8500697 0.45844913 9.5302323e-39
-0.5 -0.73883933 0.46966431 9.5302323e-39
-0.5 -0.64600277 0.44976729 9.5302323e-39
-0.5 -0.55004448 0.4259924 9.5302323e-39
-2.9434636 -0.5 0.43991417 9.5302323e-39
-2.8557391 -0.5 0.45867842 9.5302323e-39
-2.786113 -0.5 0.45461527 9.5302323e-39
-2.6556973 -0.5 0.44307747 9.5302323e-39
-2.5575359 -0.5 0.46802661 9.5302323e-39
-2.4456315 -0.5 0.45320201 9.5302323e-39
-2.3480756 -0.5 0.46420264 9.5302323e-39
-2.2534821 -0.5 0.44497803 9.5302323e-39
-2.1485298 -0.5 0.44491526 9.5302323e-39
-2.0503728 -0.5 0.46086669 9.5302323e-39
-1.9334389 -0.5 0.45191142 9.5302323e-39
-1.848582 -0.5 0.42883492 9.5302323e-39
-1.7496408 -0.5 0.44195405 9.5302323e-39
-1.6572909 -0.5 0.44570401 9.5302323e-39
-1.5376815 -0.5 0.45475927 9.5302323e-39
-1.4733469 -0.5 0.46673301 9.5302323e-39
-1.3618426 -0.5 0.45067883 9.5302323e-39
-1.2311014 -0.5 0.45033324 9.5302323e-39
-1.1357421 -0.5 0.47307172 9.5302323e-39
-1.0490243 -0.5 0.46156278 9.5302323e-39
-0.96440029 -0.5 0.46881449 9.5302323e-39
-0.84774017 -0.5 0.43896523 9.5302323e-39
-0.75318062 -0.5 0.45410469 9.5302323e-39
-0.66571426 -0.5 0.43076926 9.5302323e-39
-0.5332709 -0.5 0.45132241 9.5302323e-39
-0.5 -2.9499698 0.55200654 9.5302323e-39
-0.5 -2.8434594 0.55900449 9.5302323e-39
-0.5 -2.7617128 0.54793763 9.5302323e-39
-0.5 -2.6380889 0.5434652 9.5302323e-39
-0.5 -2.552599 0.55728 9.5302323e-39
-0.5 -2.4463074 0.57260144 9.5302323e-39
-0.5 -2.3398125 0.5660724 9.5302323e-39
-0.5 -2.2533672 0.55862802 9.5302323e-39
-0.5 -2.1610293 0.55412018 9.5302323e-39
-0.5 -2.0429535 0.5520739 9.5302323e-39
-0.5 -1.9514635 0.54646105 9.5302323e-39
-0.5 -1.8725072 0.54844117 9.5302323e-39
-0.5 -1.7257572 0.55516881 9.5302323e-39
-0.5 -1.6618835 0.55064929 9.5302323e-39
-0.5 -1.5580329 0.54773623 9.5302323e-39
-0.5 -1.4421738 0.55339086 9.5302323e-39
-0.5 -1.3686651 0.55393946 9.5302323e-39
-0.5 -1.2444743 0.55362242 9.5302323e-39
-0.5 -1.1517642 0.55016547 9.5302323e-39
-0.5 -1.0234231 0.53922278 9.5302323e-39
-0.5 -0.94307542 0.54040974 9.5302323e-39
-0.5 -0.83304042 0.52642006 9.5302323e-39
-0.5 -0.7469933 0.55996239 9.5302323e-39
-0.5 -0.65717113 0.54908746 9.5302323e-39
-0.5 -0.55426204 0.55753601 9.5302323e-39
-2.9403293 -0.5 0.56613809 9.5302323e-39
-2.8690474 -0.5 0.53800702 9.5302323e-39
-2.7469022 -0.5 0.54200685 9.5302323e-39
-2.6427572 -0.5 0.55256307 9.5302323e-39
-2.5656443 -0.5 0.56680518 9.5302323e-39
-2.4505179 -0.5 0.52521336 9.5302323e-39
-2.3434663 -0.5 0.5517925 9.5302323e-39
-2.2395453 -0.5 0.53684562 9.5302323e-39
-2.1565714 -0.5 0.53964013 9.5302323e-39
-2.0387857 -0.5 0.55957443 9.5302323e-39
-1.9517626 -0.5 0.54119158 9.5302323e-39
-1.8492247 -0.5 0.52252549 9.5302323e-39
-1.7436765 -0.5 0.56290948 9.5302323e-39
-1.6549606 -0.5 0.55173141 9.5302323e-39
-1.5427417 -0.5 0.53948784 9.5302323e-39
-1.4536897 -0.5 0.5521729 9.5302323e-39
-1.3613135 -0.5 0.5767495 9.5302323e-39
-1.2547441 -0.5 0.54352397 9.5302323e-39
-1.1526036 -0.5 0.54012382 9.5302323e-39
-1.0533776 -0.5 0.56863469 9.5302323e-39
-0.96178442 -0.5 0.57635802 9.5302323e-39
-0.83768022 -0.5 0.55135876 9.5302323e-39
-0.76337796 -0.5 0.52800512 9.5302323e-39
-0.6482138 -0.5 0.57334715 9.5302323e-39
-0.57072222 -0.5 0.56208533 9.5302323e-39
-0.5 -2.942059 0.66194487 9.5302323e-39
-0.5 -2.8476841 0.6382097 9.5302323e-39
-0.5 -2.7631803 0.62443483 9.5302323e-39
-0.5 -2.6449628 0.65168726 9.5302323e-39
-0.5 -2.569957 0.63298804 9.5302323e-39
-0.5 -2.431622 0.65093106 9.5302323e-39
-0.5 -2.3642144 0.6499263 9.5302323e-39
-0.5 -2.2184155 0.64006901 9.5302323e-39
-0.5 -2.1374581 0.66156834 9.5302323e-39
-0.5 -2.0423901 0.64784533 9.5302323e-39
-0.5 -1.9599469 0.63764858 9.5302323e-39
-0.5 -1.8513306 0.65545398 9.5302323e-39
-0.5 -1.7637167 0.65840626 9.5302323e-39
-0.5 -1.654182 0.63956952 9.5302323e-39
-0.5 -1.5510218 0.67664951 9.5302323e-39
-0.5 -1.4600611 0.63592654 9.5302323e-39
-0.5 -1.343269 0.66969061 9.5302323e-39
-0.5 -1.2448431 0.62963307 9.5302323e-39
-0.5 -1.1593685 0.63807821 9.5302323e-39
-0.5 -1.0370715 0.64083987 9.5302323e-39
-0.5 -0.95004511 0.64440334 9.5302323e-39
-0.5 -0.86938202 0.64474523 9.5302323e-39
-0.5 -0.74443012 0.65304035 9.5302323e-39
-0.5 -0.64721233 0.62251562 9.5302323e-39
-0.5 -0.56470919 0.64733481 9.5302323e-39
-2.9464681 -0.5 0.64054382 9.5302323e-39
-2.8401148 -0.5 0.64066201 9.5302323e-39
-2.7301364 -0.5 0.64904267 9.5302323e-39
-2.6673412 -0.5 0.64782292 9.5302323e-39
-2.5493066 -0.5 0.6270631 9.5302323e-39
-2.4435735 -0.5 0.64652199 9.5302323e-39
-2.3374643 -0.5 0.64995366 9.5302323e-39
-2.2539248 -0.5 0.67294246 9.5302323e-39
-2.157023 -0.5 0.65537894 9.5302323e-39
-2.0526247 -0.5 0.63880605 9.5302323e-39
-1.9502128 -0.5 0.65064323 9.5302323e-39
-1.8376664 -0.5 0.62505627 9.5302323e-39
-1.7325367 -0.5 0.62774694 9.5302323e-39
-1.6433111 -0.5 0.63963997 9.5302323e-39
-1.5661271 -0.5 0.63636529 9.5302323e-39
-1.4631648 -0.5 0.65540332 9.5302323e-39
-1.3352581 -0.5 0.65222138 9.5302323e-39
-1.260874 -0.5 0.65411347 9.5302323e-39
-1.1393032 -0.5 0.6276601 9.5302323e-39
-1.0448776 -0.5 0.64872241 9.5302323e-39
-0.95121312 -0.5 0.64558268 9.5302323e-39
-0.84425533 -0.5 0.64598334 9.5302323e-39
-0.7219069 -0.5 0.62400335 9.5302323e-39
-0.65617126 -0.5 0.6504426 9.5302323e-39
-0.53874069 -0.5 0.63523775 9.5302323e-39
-0.5 -2.9577987 0.7379002 9.5302323e-39
-0.5 -2.8736391 0.74540323 9.5302323e-39
-0.5 -2.7370067 0.7483927 9.5302323e-39
-0.5 -2.6334856 0.75177634 9.5302323e-39
-0.5 -2.5436976 0.74655509 9.5302323e-39
-0.5 -2.4476779 0.7449556 9.5302323e-39
-0.5 -2.3213692 0.77067804 9.5302323e-39
-0.5 -2.2264364 0.77245039 9.5302323e-39
-0.5 -2.1399789 0.73431998 9.5302323e-39
-0.5 -2.0582023 0.74044454 9.5302323e-39
-0.5 -1.9512068 0.73380518 9.5302323e-39
-0.5 -1.83919 0.75063884 9.5302323e-39
-0.5 -1.7639791 0.75134176 9.5302323e-39
-0.5 -1.6475402 0.73317522 9.5302323e-39
-0.5 -1.5388727 0.76382113 9.5302323e-39
-0.5 -1.4401463 0.75341558 9.5302323e-39
-0.5 -1.3434023 0.7458961 9.5302323e-39
-0.5 -1.230374 0.76728821 9.5302323e-39
-0.5 -1.156189 0.75471616 9.5302323e-39
-0.5 -1.0548317 0.75375909 9.5302323e-39
-0.5 -0.95873904 0.72961771 9.5302323e-39
-0.5 -0.83382207 0.72607738 9.5302323e-39
-0.5 -0.77673572 0.76293826 9.5302323e-39
-0.5 -0.64086843 0.74939793 9.5302323e-39
-0.5 -0.55112928 0.73257732 9.5302323e-39
-2.9348893 -0.5 0.76865399 9.5302323e-39
-2.8405745 -0.5 0.72819489 9.5302323e-39
-2.7616832 -0.5 0.75268573 9.5302323e-39
-2.6298149 -0.5 0.75092 9.5302323e-39
-2.5315034 -0.5 0.75782108 9.5302323e-39
-2.4357486 -0.5 0.74205661 9.5302323e-39
-2.3615451 -0.5 0.7592048 9.5302323e-39
-2.246223 -0.5 0.76089901 9.5302323e-39
-2.1307261 -0.5 0.74674749 9.5302323e-39
-2.0474293 -0.5 0.76301122 9.5302323e-39
-1.9459692 -0.5 0.74090672 9.5302323e-39
-1.839957 -0.5 0.72724766 9.5302323e-39
-1.7471204 -0.5 0.76995701 9.5302323e-39
-1.6489515 -0.5 0.72375345 9.5302323e-39
-1.5461611 -0.5 0.76128858 9.5302323e-39
-1.4593039 -0.5 0.74712408 9.5302323e-39
-1.3662984 -0.5 0.7580741 9.5302323e-39
-1.2661657 -0.5 0.76617128 9.5302323e-39
-1.1514267 -0.5 0.74477774 9.5302323e-39
-1.0497799 -0.5 0.77689999 9.5302323e-39
-0.93385828 -0.5 0.75196302 9.5302323e-39
-0.87198472 -0.5 0.75902534 9.5302323e-39
-0.7705363 -0.5 0.75552845 9.5302323e-39
