# .PCD v0.7 - Point Cloud Data file format
VERSION 0.7
FIELDS x y z rgb
SIZE 4 4 4 4
TYPE F F F F
COUNT 1 1 1 1
WIDTH 1251
HEIGHT 1
VIEWPOINT 0 0 0 1 0 0 0
POINTS 1251
DATA ascii
0.5 -1.1639218 0.3564437 6.880545e-39
0.5 -1.0511382 0.34329614 6.880545e-39
0.5 -0.96116447 0.35740799 6.880545e-39
0.5 -0.85814399 0.35270369 6.880545e-39
0.5 -0.75978678 0.35420853 6.880545e-39
0.5 -0.6436342 0.38603041 6.880545e-39
0.5 -0.54946381 0.34981766 6.880545e-39
0.54465532 -0.5 0.345624 6.880545e-39
0.65212113 -0.5 0.37295279 6.880545e-39
0.75197732 -0.5 0.34362721 6.880545e-39
0.8356508 -0.5 0.34089524 6.880545e-39
0.95262527 -0.5 0.35700265 6.880545e-39
1.0597233 -0.5 0.35311854 6.880545e-39
1.1470151 -0.5 0.36062446 6.880545e-39
1.252486 -0.5 0.34000018 6.880545e-39
1.3459238 -0.5 0.34097019 6.880545e-39
1.4393135 -0.5 0.34822777 6.880545e-39
1.5490785 -0.5 0.34896594 6.880545e-39
1.6479381 -0.5 0.34809214 6.880545e-39
1.7539784 -0.5 0.36780748 6.880545e-39
1.8463811 -0.5 0.36386982 6.880545e-39
1.9465047 -0.5 0.36112702 6.880545e-39
2.0369673 -0.5 0.33548725 6.880545e-39
2.1464486 -0.5 0.35299706 6.880545e-39
2.2438488 -0.5 0.36960185 6.880545e-39
2.3483253 -0.5 0.35986912 6.880545e-39
2.4389081 -0.5 0.34451738 6.880545e-39
2.5336752 -0.5 0.37381554 6.880545e-39
2.6405361 -0.5 0.34478241 6.880545e-39
2.761431 -0.5 0.36870688 6.880545e-39
2.8562264 -0.5 0.34187111 6.880545e-39
2.9581304 -0.5 0.3450101 6.880545e-39
0.5 -2.9539576 0.44179812 6.880545e-39
0.5 -2.8282292 0.44322747 6.880545e-39
0.5 -2.7325342 0.46513578 6.880545e-39
0.5 -2.6360135 0.43576497 6.880545e-39
0.5 -2.5561728 0.44569585 6.880545e-39
0.5 -2.4541333 0.42888206 6.880545e-39
0.5 -2.3649352 0.46999261 6.880545e-39
0.5 -2.2656853 0.46391153 6.880545e-39
0.5 -2.1531916 0.45985675 6.880545e-39
0.5 -2.0393693 0.45070061 6.880545e-39
0.5 -1.9558032 0.44547778 6.880545e-39
0.5 -1.8422604 0.44876322 6.880545e-39
0.5 -1.7559054 0.43114761 6.880545e-39
0.5 -1.657096 0.45646068 6.880545e-39
0.5 -1.5334091 0.45349923 6.880545e-39
0.5 -1.4454793 0.42494181 6.880545e-39
0.5 -1.333226 0.4658125 6.880545e-39
0.5 -1.2590111 0.45267227 6.880545e-39
0.5 -1.1399299 0.44237518 6.880545e-39
0.5 -1.0519631 0.42526543 6.880545e-39
0.5 -0.96039468 0.42525968 6.880545e-39
0.5 -0.8733843 0.45666957 6.880545e-39
0.5 -0.7752195 0.41399047 6.880545e-39
0.5 -0.67331392 0.44537884 6.880545e-39
0.5 -0.54923332 0.45285913 6.880545e-39
0.55483246 -0.5 0.43149388 6.880545e-39
0.66252083 -0.5 0.43356127 6.880545e-39
0.75419253 -0.5 0.43647698 6.880545e-39
0.83859038 -0.5 0.46096659 6.880545e-39
0.97045738 -0.5 0.46313962 6.880545e-39
1.0541683 -0.5 0.45077005 6.880545e-39
1.1599422 -0.5 0.44842649 6.880545e-39
1.2446907 -0.5 0.44548258 6.880545e-39
1.3365588 -0.5 0.45482337 6.880545e-39
1.4459684 -0.5 0.46061552 6.880545e-39
1.5413454 -0.5 0.45020062 6.880545e-39
1.6574314 -0.5 0.46129605 6.880545e-39
1.7524529 -0.5 0.44886634 6.880545e-39
1.8489689 -0.5 0.45141506 6.880545e-39
1.9479957 -0.5 0.4503465 6.880545e-39
2.0433984 -0.5 0.44809034 6.880545e-39
2.1548798 -0.5 0.43403617 6.880545e-39
2.2507331 -0.5 0.44439101 6.880545e-39
2.3413539 -0.5 0.44979206 6.880545e-39
2.4552424 -0.5 0.44434384 6.880545e-39
2.5549157 -0.5 0.45277098 6.880545e-39
2.6563966 -0.5 0.43857357 6.880545e-39
2.7429886 -0.5 0.43607172 6.880545e-39
2.8576701 -0.5 0.45230913 6.880545e-39
2.9415474 -0.5 0.45055962 6.880545e-39
0.5 -2.9485548 0.55769747 6.880545e-39
0.5 -2.8374302 0.55245429 6.880545e-39
0.5 -2.7561367 0.54806334 6.880545e-39
0.5 -2.6378517 0.54532939 6.880545e-39
0.5 -2.5616214 0.5568592 6.880545e-39
0.5 -2.4500937 0.54417646 6.880545e-39
0.5 -2.3512442 0.5606851 6.880545e-39
0.5 -2.2278209 0.55022997 6.880545e-39
0.5 -2.1598892 0.55552244 6.880545e-39
0.5 -2.0353045 0.55599475 6.880545e-39
0.5 -1.9624587 0.55546135 6.880545e-39
0.5 -1.8452014 0.52934134 6.880545e-39
0.5 -1.7296412 0.53438431 6.880545e-39
0.5 -1.6508945 0.53343624 6.880545e-39
0.5 -1.5558907 0.53777599 6.880545e-39
0.5 -1.4654125 0.55900753 6.880545e-39
0.5 -1.3541301 0.53453881 6.880545e-39
0.5 -1.2232207 0.54805464 6.880545e-39
0.5 -1.1555945 0.55324894 6.880545e-39
0.5 -1.0432473 0.54339284 6.880545e-39
0.5 -0.96493971 0.55939567 6.880545e-39
0.5 -0.84333676 0.5552516 6.880545e-39
0.5 -0.76449585 0.5574196 6.880545e-39
0.5 -0.64777797 0.54279196 6.880545e-39
0.5 -0.56691056 0.56341767 6.880545e-39
0.55452126 -0.5 0.56765074 6.880545e-39
0.64982766 -0.5 0.55182034 6.880545e-39
0.73891336 -0.5 0.5574221 6.880545e-39
0.83039558 -0.5 0.5597651 6.880545e-39
0.95125526 -0.5 0.54705185 6.880545e-39
1.061498 -0.5 0.53595746 6.880545e-39
1.1527112 -0.5 0.5234111 6.880545e-39
1.253597 -0.5 0.54773974 6.880545e-39
1.3427132 -0.5 0.53978604 6.880545e-39
1.4294095 -0.5 0.54655111 6.880545e-39
1.5693409 -0.5 0.52804899 6.880545e-39
1.6725944 -0.5 0.52426934 6.880545e-39
1.7396885 -0.5 0.5372473 6.880545e-39
1.8404387 -0.5 0.55510801 6.880545e-39
1.9633191 -0.5 0.54728502 6.880545e-39
2.0550473 -0.5 0.54799289 6.880545e-39
2.152777 -0.5 0.55366212 6.880545e-39
2.2407515 -0.5 0.56718999 6.880545e-39
2.3545585 -0.5 0.54373264 6.880545e-39
2.4688048 -0.5 0.546143 6.880545e-39
2.5472846 -0.5 0.55861962 6.880545e-39
2.6530361 -0.5 0.55691415 6.880545e-39
2.7346797 -0.5 0.58591366 6.880545e-39
2.8430316 -0.5 0.54023814 6.880545e-39
2.9515615 -0.5 0.55106252 6.880545e-39
0.5 -2.9354026 0.64382476 6.880545e-39
0.5 -2.8406708 0.62808084 6.880545e-39
0.5 -2.7476609 0.63710719 6.880545e-39
0.5 -2.6428826 0.64875221 6.880545e-39
0.5 -2.5440943 0.64671284 6.880545e-39
0.5 -2.458015 0.65619892 6.880545e-39
0.5 -2.346266 0.64853203 6.880545e-39
0.5 -2.2636268 0.66245931 6.880545e-39
0.5 -2.1600571 0.62456721 6.880545e-39
0.5 -2.033186 0.68533772 6.880545e-39
0.5 -1.9498262 0.64567542 6.880545e-39
0.5 -1.8570962 0.64372236 6.880545e-39
0.5 -1.7437271 0.62226403 6.880545e-39
0.5 -1.6474857 0.63426465 6.880545e-39
0.5 -1.5382854 0.6406312 6.880545e-39
0.5 -1.4593601 0.62896389 6.880545e-39
0.5 -1.3375171 0.63664824 6.880545e-39
0.5 -1.2705233 0.65264988 6.880545e-39
0.5 -1.1450243 0.65154833 6.880545e-39
0.5 -1.0620669 0.62518942 6.880545e-39
0.5 -0.92882824 0.6529054 6.880545e-39
0.5 -0.82427293 0.63055879 6.880545e-39
0.5 -0.76679492 0.64299923 6.880545e-39
0.5 -0.65232962 0.65541226 6.880545e-39
0.5 -0.5520854 0.669779 6.880545e-39
0.55414039 -0.5 0.63745594 6.880545e-39
0.6383267 -0.5 0.63988656 6.880545e-39
0.75636238 -0.5 0.65390801 6.880545e-39
0.84728986 -0.5 0.6474846 6.880545e-39
0.94720989 -0.5 0.65797377 6.880545e-39
1.046442 -0.5 0.65266544 6.880545e-39
1.1338543 -0.5 0.65318793 6.880545e-39
1.2583553 -0.5 0.65659863 6.880545e-39
1.3473754 -0.5 0.65052563 6.880545e-39
1.4545112 -0.5 0.63885075 6.880545e-39
1.5547068 -0.5 0.6501267 6.880545e-39
1.6580049 -0.5 0.66992021 6.880545e-39
1.7415766 -0.5 0.66664469 6.880545e-39
1.8605862 -0.5 0.64608294 6.880545e-39
1.9413841 -0.5 0.66046154 6.880545e-39
2.0343971 -0.5 0.6636399 6.880545e-39
2.1369672 -0.5 0.63862514 6.880545e-39
2.262444 -0.5 0.64844465 6.880545e-39
2.3650181 -0.5 0.63813329 6.880545e-39
2.4424233 -0.5 0.64949036 6.880545e-39
2.549762 -0.5 0.65800935 6.880545e-39
2.6572104 -0.5 0.64407319 6.880545e-39
2.7658632 -0.5 0.63757682 6.880545e-39
2.8378444 -0.5 0.64896631 6.880545e-39
2.9519823 -0.5 0.65000945 6.880545e-39
0.5 -2.9462109 0.71308225 6.880545e-39
0.5 -2.8489585 0.75478631 6.880545e-39
0.5 -2.7518563 0.76624644 6.880545e-39
0.5 -2.6539288 0.74269521 6.880545e-39
0.5 -2.5558832 0.75163144 6.880545e-39
0.5 -2.4521122 0.75400496 6.880545e-39
0.5 -2.3647976 0.7352168 6.880545e-39
0.5 -2.2447131 0.76818031 6.880545e-39
0.5 -2.1407626 0.73939896 6.880545e-39
0.5 -2.0532289 0.74839127 6.880545e-39
0.5 -1.971771 0.75296092 6.880545e-39
0.5 -1.8453175 0.77071792 6.880545e-39
0.5 -1.7665519 0.76044375 6.880545e-39
0.5 -1.619889 0.73510236 6.880545e-39
0.5 -1.5512577 0.74363178 6.880545e-39
0.5 -1.4322788 0.75574273 6.880545e-39
0.5 -1.3480769 0.74299723 6.880545e-39
0.5 -1.2482737 0.76643866 6.880545e-39
0.5 -1.1566941 0.75992912 6.880545e-39
0.5 -1.0678532 0.73971105 6.880545e-39
0.5 -0.97533476 0.76465786 6.880545e-39
0.5 -0.8389017 0.75181276 6.880545e-39
0.5 -0.7447089 0.76013267 6.880545e-39
0.5 -0.64789212 0.74242103 6.880545e-39
0.5 -0.5386368 0.75884283 6.880545e-39
0.54869252 -0.5 0.75435501 6.880545e-39
0.6487571 -0.5 0.74590284 6.880545e-39
0.74627453 -0.5 0.76357633 6.880545e-39
0.85957134 -0.5 0.74007666 6.880545e-39
0.93406641 -0.5 0.74713045 6.880545e-39
1.0631766 -0.5 0.76048976 6.880545e-39
1.1497959 -0.5 0.7323119 6.880545e-39
1.25437 -0.5 0.74061912 6.880545e-39
1.365131 -0.5 0.75789547 6.880545e-39
1.4616606 -0.5 0.73915756 6.880545e-39
1.5200907 -0.5 0.74443376 6.880545e-39
1.6449689 -0.5 0.74660927 6.880545e-39
1.7624956 -0.5 0.75402063 6.880545e-39
1.850414 -0.5 0.74801373 6.880545e-39
1.9586842 -0.5 0.74908006 6.880545e-39
2.045949 -0.5 0.76171261 6.880545e-39
2.160852 -0.5 0.74915332 6.880545e-39
2.2710888 -0.5 0.76428688 6.880545e-39
2.3322484 -0.5 0.74351841 6.880545e-39
2.4580071 -0.5 0.7577765 6.880545e-39
2.5368328 -0.5 0.77364069 6.880545e-39
2.6432498 -0.5 0.74159914 6.880545e-39
2.7490113 -0.5 0.71513468 6.880545e-39
2.8520753 -0.5 0.76047719 6.880545e-39
2.9518597 -0.5 0.74331522 6.880545e-39
0.5 -2.9460731 0.86559123 6.880545e-39
0.5 -2.8405643 0.87028193 6.880545e-39
0.5 -2.7447555 0.85447747 6.880545e-39
0.5 -2.6393187 0.85193777 6.880545e-39
0.5 -2.5508637 0.84247309 6.880545e-39
0.5 -2.4435792 0.83168286 6.880545e-39
0.5 -2.3222656 0.87148583 6.880545e-39
0.5 -2.2761283 0.85080779 6.880545e-39
0.5 -2.1462982 0.86391884 6.880545e-39
0.5 -2.0387955 0.82904023 6.880545e-39
0.5 -1.9630193 0.83954608 6.880545e-39
0.5 -1.8626102 0.88232523 6.880545e-39
0.5 -1.7588624 0.85663843 6.880545e-39
0.5 -1.6410844 0.8585903 6.880545e-39
0.5 -1.5495266 0.83891815 6.880545e-39
0.5 -1.4573381 0.8477093 6.880545e-39
0.5 -1.3479595 0.83197039 6.880545e-39
0.5 -1.2514113 0.83264077 6.880545e-39
0.5 -1.1304885 0.84354615 6.880545e-39
0.5 -1.0409569 0.84716302 6.880545e-39
0.5 -0.95254457 0.84423548 6.880545e-39
0.5 -0.85895097 0.84714288 6.880545e-39
0.5 -0.75110459 0.84090263 6.880545e-39
0.5 -0.63870907 0.84643996 6.880545e-39
0.5 -0.55912673 0.83480459 6.880545e-39
0.56520873 -0.5 0.84039545 6.880545e-39
0.65708107 -0.5 0.85641474 6.880545e-39
0.74468261 -0.5 0.8645851 6.880545e-39
0.8385005 -0.5 0.85726714 6.880545e-39
0.95767719 -0.5 0.83636266 6.880545e-39
1.0580615 -0.5 0.84365016 6.880545e-39
1.1507952 -0.5 0.8411873 6.880545e-39
1.2539006 -0.5 0.8372671 6.880545e-39
1.3535149 -0.5 0.83545899 6.880545e-39
1.4549469 -0.5 0.85156876 6.880545e-39
1.5613977 -0.5 0.83769017 6.880545e-39
1.6861681 -0.5 0.88110197 6.880545e-39
1.7612646 -0.5 0.84984994 6.880545e-39
1.8524001 -0.5 0.85978818 6.880545e-39
1.9724665 -0.5 0.845366 6.880545e-39
2.0599415 -0.5 0.84636855 6.880545e-39
2.1541464 -0.5 0.86133581 6.880545e-39
2.252301 -0.5 0.86065155 6.880545e-39
2.3436527 -0.5 0.84791309 6.880545e-39
2.4380169 -0.5 0.84676147 6.880545e-39
2.5525172 -0.5 0.85591388 6.880545e-39
2.6477227 -0.5 0.84892428 6.880545e-39
2.7533486 -0.5 0.83148062 6.880545e-39
2.8661594 -0.5 0.85774928 6.880545e-39
2.9404285 -0.5 0.86959171 6.880545e-39
0.5 -2.9495203 0.95575052 6.880545e-39
0.5 -2.8644252 0.94336128 6.880545e-39
0.5 -2.7558618 0.93245649 6.880545e-39
0.5 -2.6457429 0.9548735 6.880545e-39
0.5 -2.5647223 0.95194626 6.880545e-39
0.5 -2.4606183 0.9517833 6.880545e-39
0.5 -2.3219666 0.97643203 6.880545e-39
0.5 -2.2389925 0.95327669 6.880545e-39
0.5 -2.1506636 0.94503409 6.880545e-39
0.5 -2.0528684 0.94012994 6.880545e-39
0.5 -1.9470565 0.95264816 6.880545e-39
0.5 -1.860263 0.95535445 6.880545e-39
0.5 -1.7569375 0.92162597 6.880545e-39
0.5 -1.6350985 0.95450336 6.880545e-39
0.5 -1.554255 0.95511258 6.880545e-39
0.5 -1.4542053 0.93619555 6.880545e-39
0.5 -1.3531389 0.96601915 6.880545e-39
0.5 -1.2553549 0.94072843 6.880545e-39
0.5 -1.1510988 0.94743979 6.880545e-39
0.5 -1.045119 0.95198077 6.880545e-39
0.5 -0.94060284 0.94851124 6.880545e-39
0.5 -0.84759462 0.95161057 6.880545e-39
0.5 -0.77962089 0.94429809 6.880545e-39
0.5 -0.6288746 0.95011675 6.880545e-39
0.5 -0.52571732 0.94521922 6.880545e-39
0.55372447 -0.5 0.95130444 6.880545e-39
0.63882768 -0.5 0.95947933 6.880545e-39
0.72965592 -0.5 0.94132435 6.880545e-39
0.84627545 -0.5 0.95811445 6.880545e-39
0.95283794 -0.5 0.93545806 6.880545e-39
1.0387086 -0.5 0.94227469 6.880545e-39
1.1593287 -0.5 0.95270145 6.880545e-39
1.2619102 -0.5 0.95164764 6.880545e-39
1.336174 -0.5 0.95676488 6.880545e-39
1.4277788 -0.5 0.9385314 6.880545e-39
1.5674685 -0.5 0.95669937 6.880545e-39
1.6210274 -0.5 0.9669019 6.880545e-39
1.7409045 -0.5 0.95186538 6.880545e-39
1.863 -0.5 0.95752525 6.880545e-39
1.954038 -0.5 0.95724487 6.880545e-39
2.0490401 -0.5 0.96315145 6.880545e-39
2.1187449 -0.5 0.9340862 6.880545e-39
2.2878494 -0.5 0.9369455 6.880545e-39
2.3702738 -0.5 0.95398492 6.880545e-39
2.4383519 -0.5 0.95912009 6.880545e-39
2.5583453 -0.5 0.95137644 6.880545e-39
2.6607966 -0.5 0.9494794 6.880545e-39
2.7497852 -0.5 0.94196111 6.880545e-39
2.8513567 -0.5 0.94455355 6.880545e-39
2.9590917 -0.5 0.94680721 6.880545e-39
0.5 -2.9484591 1.0479882 6.880545e-39
0.5 -2.837853 1.052532 6.880545e-39
0.5 -2.716527 1.0370772 6.880545e-39
0.5 -2.6377358 1.0636661 6.880545e-39
0.5 -2.5174468 1.0466533 6.880545e-39
0.5 -2.4561737 1.0684088 6.880545e-39
0.5 -2.3476226 1.0508273 6.880545e-39
0.5 -2.2515917 1.0604059 6.880545e-39
0.5 -2.1161799 1.0607958 6.880545e-39
0.5 -2.0632486 1.0547636 6.880545e-39
0.5 -1.9504122 1.0479168 6.880545e-39
0.5 -1.8714155 1.0736355 6.880545e-39
0.5 -1.7434372 1.0325611 6.880545e-39
0.5 -1.6646082 1.0399622 6.880545e-39
0.5 -1.5610206 1.0602887 6.880545e-39
0.5 -1.4563044 1.0332021 6.880545e-39
0.5 -1.3502212 1.033612 6.880545e-39
0.5 -1.2410579 1.0567323 6.880545e-39
0.5 -1.1482198 1.0142239 6.880545e-39
0.5 -1.0650131 1.041947 6.880545e-39
0.5 -0.95903045 1.0410739 6.880545e-39
0.5 -0.84927917 1.0565195 6.880545e-39
0.5 -0.74875283 1.042096 6.880545e-39
0.5 -0.62475783 1.0335703 6.880545e-39
0.5 -0.54845947 1.0534269 6.880545e-39
0.55096519 -0.5 1.0386214 6.880545e-39
0.67651463 -0.5 1.0343813 6.880545e-39
0.73178446 -0.5 1.0521126 6.880545e-39
0.86181927 -0.5 1.0581938 6.880545e-39
0.93666553 -0.5 1.0515596 6.880545e-39
1.0312302 -0.5 1.0543405 6.880545e-39
1.1448859 -0.5 1.064798 6.880545e-39
1.2469798 -0.5 1.0407683 6.880545e-39
1.3704349 -0.5 1.0344067 6.880545e-39
1.4554781 -0.5 1.0549855 6.880545e-39
1.5331097 -0.5 1.0429391 6.880545e-39
1.658444 -0.5 1.0524657 6.880545e-39
1.7495273 -0.5 1.0610532 6.880545e-39
1.8441564 -0.5 1.0574473 6.880545e-39
1.9427043 -0.5 1.047514 6.880545e-39
2.04795 -0.5 1.0541228 6.880545e-39
2.1645639 -0.5 1.0552502 6.880545e-39
2.2441444 -0.5 1.0336921 6.880545e-39
2.3502209 -0.5 1.0731281 6.880545e-39
2.4390414 -0.5 1.0456299 6.880545e-39
2.5538809 -0.5 1.0415521 6.880545e-39
2.6455665 -0.5 1.0466934 6.880545e-39
2.7492924 -0.5 1.0403861 6.880545e-39
2.8508701 -0.5 1.0856657 6.880545e-39
2.9419692 -0.5 1.0562186 6.880545e-39
0.5 -2.9579117 1.1421021 6.880545e-39
0.5 -2.8426087 1.1448618 6.880545e-39
0.5 -2.7456505 1.1427844 6.880545e-39
0.5 -2.6457117 1.1461473 6.880545e-39
0.5 -2.5528128 1.1613151 6.880545e-39
0.5 -2.338567 1.1710237 6.880545e-39
0.5 -2.2339358 1.1374923 6.880545e-39
0.5 -2.1482809 1.1452717 6.880545e-39
0.5 -2.0418456 1.1615396 6.880545e-39
0.5 -1.9433485 1.1445044 6.880545e-39
0.5 -1.8528128 1.1424906 6.880545e-39
0.5 -1.7431952 1.1431408 6.880545e-39
0.5 -1.6592216 1.1611749 6.880545e-39
0.5 -1.5620277 1.1478524 6.880545e-39
0.5 -1.4452516 1.1494384 6.880545e-39
0.5 -1.3598654 1.1454412 6.880545e-39
0.5 -1.2419001 1.153481 6.880545e-39
0.5 -1.1707015 1.119983 6.880545e-39
0.5 -1.0699146 1.1608022 6.880545e-39
0.5 -0.95237875 1.1464856 6.880545e-39
0.5 -0.84588128 1.1536441 6.880545e-39
0.5 -0.6517356 1.1641687 6.880545e-39
0.5 -0.54793423 1.1487513 6.880545e-39
0.54953748 -0.5 1.1594086 6.880545e-39
0.62502933 -0.5 1.1565863 6.880545e-39
0.7724309 -0.5 1.1498798 6.880545e-39
0.85208178 -0.5 1.1359053 6.880545e-39
0.95012611 -0.5 1.1434224 6.880545e-39
1.0380141 -0.5 1.1816092 6.880545e-39
1.1415431 -0.5 1.1605923 6.880545e-39
1.2469114 -0.5 1.1466069 6.880545e-39
1.3581666 -0.5 1.1538613 6.880545e-39
1.4571989 -0.5 1.1488543 6.880545e-39
1.5509572 -0.5 1.1514295 6.880545e-39
1.6636986 -0.5 1.1262262 6.880545e-39
1.7534865 -0.5 1.1489943 6.880545e-39
1.8417572 -0.5 1.1417291 6.880545e-39
1.9498794 -0.5 1.139099 6.880545e-39
2.0766342 -0.5 1.1499844 6.880545e-39
2.1665945 -0.5 1.1421576 6.880545e-39
2.2488949 -0.5 1.1505234 6.880545e-39
2.3450377 -0.5 1.1636244 6.880545e-39
2.4622023 -0.5 1.167658 6.880545e-39
2.5515664 -0.5 1.1421915 6.880545e-39
2.6310399 -0.5 1.1464397 6.880545e-39
2.7422724 -0.5 1.1370219 6.880545e-39
2.8610218 -0.5 1.126646 6.880545e-39
2.9678535 -0.5 1.1514701 6.880545e-39
0.5 -2.969785 1.2233862 6.880545e-39
0.5 -2.8479264 1.2639035 6.880545e-39
0.5 -2.7410467 1.258695 6.880545e-39
0.5 -2.629153 1.2333069 6.880545e-39
0.5 -2.5544446 1.2391983 6.880545e-39
0.5 -2.4650929 1.2359426 6.880545e-39
0.5 -2.3463974 1.2459522 6.880545e-39
0.5 -2.2525256 1.2658179 6.880545e-39
0.5 -2.1601079 1.2616777 6.880545e-39
0.5 -2.0471778 1.2505083 6.880545e-39
0.5 -1.9380071 1.2832167 6.880545e-39
0.5 -1.8659654 1.2549409 6.880545e-39
0.5 -1.7220076 1.243736 6.880545e-39
0.5 -1.6543941 1.2480556 6.880545e-39
0.5 -1.5250365 1.2714287 6.880545e-39
0.5 -1.4450189 1.2665175 6.880545e-39
0.5 -1.3454351 1.2679149 6.880545e-39
0.5 -1.2493868 1.2575302 6.880545e-39
0.5 -1.1721743 1.2564044 6.880545e-39
0.5 -1.0457878 1.2478933 6.880545e-39
0.5 -0.92488176 1.2581749 6.880545e-39
0.5 -0.83403462 1.245909 6.880545e-39
0.5 -0.75821471 1.2396023 6.880545e-39
0.5 -0.64153558 1.2456236 6.880545e-39
0.5 -0.54605848 1.2674016 6.880545e-39
0.5517782 -0.5 1.2829393 6.880545e-39
0.64610201 -0.5 1.2526187 6.880545e-39
0.75790507 -0.5 1.2401694 6.880545e-39
0.84957153 -0.5 1.2549582 6.880545e-39
0.95886546 -0.5 1.2257103 6.880545e-39
1.0441993 -0.5 1.2607453 6.880545e-39
1.1475915 -0.5 1.2808025 6.880545e-39
1.2393529 -0.5 1.247692 6.880545e-39
1.3782951 -0.5 1.2591885 6.880545e-39
1.4539229 -0.5 1.2607412 6.880545e-39
1.5630398 -0.5 1.2695582 6.880545e-39
1.6533272 -0.5 1.2524896 6.880545e-39
1.7656612 -0.5 1.2743484 6.880545e-39
1.860629 -0.5 1.2434403 6.880545e-39
1.9423231 -0.5 1.2572877 6.880545e-39
2.0574648 -0.5 1.2634627 6.880545e-39
2.127187 -0.5 1.2439799 6.880545e-39
2.2552793 -0.5 1.2595261 6.880545e-39
2.3697586 -0.5 1.265095 6.880545e-39
2.4495552 -0.5 1.2541786 6.880545e-39
2.5620928 -0.5 1.2567506 6.880545e-39
2.6442032 -0.5 1.2739006 6.880545e-39
2.7281287 -0.5 1.2704128 6.880545e-39
2.8571784 -0.5 1.2561468 6.880545e-39
2.9586227 -0.5 1.2570157 6.880545e-39
0.5 -2.9465735 1.3565267 6.880545e-39
0.5 -2.8666005 1.3405725 6.880545e-39
0.5 -2.7518778 1.326966 6.880545e-39
0.5 -2.6514864 1.3515806 6.880545e-39
0.5 -2.5488923 1.3348572 6.880545e-39
0.5 -2.4491942 1.353307 6.880545e-39
0.5 -2.3319452 1.3556846 6.880545e-39
0.5 -2.2402697 1.382192 6.880545e-39
0.5 -2.1227264 1.3493533 6.880545e-39
0.5 -2.0718067 1.347321 6.880545e-39
0.5 -1.9404806 1.3259887 6.880545e-39
0.5 -1.8471516 1.369644 6.880545e-39
0.5 -1.7443638 1.3442609 6.880545e-39
0.5 -1.6625378 1.3555779 6.880545e-39
0.5 -1.5422723 1.3358819 6.880545e-39
0.5 -1.4561834 1.3555611 6.880545e-39
0.5 -1.3383071 1.3387969 6.880545e-39
0.5 -1.2248789 1.3410584 6.880545e-39
0.5 -1.1458076 1.3274888 6.880545e-39
0.5 -1.0628544 1.340977 6.880545e-39
0.5 -0.94675398 1.3539243 6.880545e-39
0.5 -0.84946555 1.3538215 6.880545e-39
0.5 -0.72988868 1.3546931 6.880545e-39
0.5 -0.65984499 1.3463564 6.880545e-39
0.5 -0.55620152 1.3590398 6.880545e-39
0.55314285 -0.5 1.3414285 6.880545e-39
0.63357788 -0.5 1.3521943 6.880545e-39
0.74411899 -0.5 1.3409436 6.880545e-39
0.84957075 -0.5 1.3310906 6.880545e-39
0.93313998 -0.5 1.355477 6.880545e-39
1.0636102 -0.5 1.3364223 6.880545e-39
1.1657777 -0.5 1.3592644 6.880545e-39
1.2533938 -0.5 1.3609352 6.880545e-39
1.3202019 -0.5 1.3319253 6.880545e-39
1.4319036 -0.5 1.3525814 6.880545e-39
1.54954 -0.5 1.3393612 6.880545e-39
1.6716346 -0.5 1.3480481 6.880545e-39
1.7585633 -0.5 1.3593843 6.880545e-39
1.8434626 -0.5 1.3409274 6.880545e-39
1.9609982 -0.5 1.3485166 6.880545e-39
2.0456097 -0.5 1.3581439 6.880545e-39
2.1487513 -0.5 1.3520323 6.880545e-39
2.2548633 -0.5 1.3355038 6.880545e-39
2.357028 -0.5 1.3523418 6.880545e-39
2.4418483 -0.5 1.3445971 6.880545e-39
2.5581412 -0.5 1.373986 6.880545e-39
2.6462941 -0.5 1.3514686 6.880545e-39
2.7329946 -0.5 1.3648736 6.880545e-39
2.8317096 -0.5 1.361017 6.880545e-39
2.9387822 -0.5 1.3494412 6.880545e-39
0.5 -2.9397089 1.4548777 6.880545e-39
0.5 -2.870007 1.4342386 6.880545e-39
0.5 -2.7541728 1.4562323 6.880545e-39
0.5 -2.6581228 1.4450992 6.880545e-39
0.5 -2.5615556 1.4617043 6.880545e-39
0.5 -2.4439511 1.4543679 6.880545e-39
0.5 -2.3420811 1.4415624 6.880545e-39
0.5 -2.2570758 1.4678347 6.880545e-39
0.5 -2.1590075 1.4340363 6.880545e-39
0.5 -2.059849 1.4554087 6.880545e-39
0.5 -1.9439636 1.4471673 6.880545e-39
0.5 -1.8575206 1.4448996 6.880545e-39
0.5 -1.7341193 1.4466964 6.880545e-39
0.5 -1.6555496 1.4504397 6.880545e-39
0.5 -1.5658048 1.4581599 6.880545e-39
0.5 -1.4577084 1.4571651 6.880545e-39
0.5 -1.3654395 1.4709243 6.880545e-39
0.5 -1.2551992 1.4410646 6.880545e-39
0.5 -1.1667515 1.4186442 6.880545e-39
0.5 -1.0371602 1.4657661 6.880545e-39
0.5 -0.94783801 1.4242091 6.880545e-39
0.5 -0.87295264 1.4506269 6.880545e-39
0.5 -0.74330527 1.4616119 6.880545e-39
0.5 -0.6782881 1.4500558 6.880545e-39
0.5 -0.56279695 1.442024 6.880545e-39
0.54200649 -0.5 1.448351 6.880545e-39
0.64867228 -0.5 1.4699637 6.880545e-39
0.75244188 -0.5 1.4458129 6.880545e-39
0.85229009 -0.5 1.4624816 6.880545e-39
0.96529377 -0.5 1.4387562 6.880545e-39
1.0521971 -0.5 1.4280781 6.880545e-39
1.147773 -0.5 1.4500442 6.880545e-39
1.2496344 -0.5 1.4571267 6.880545e-39
1.3362014 -0.5 1.4598612 6.880545e-39
1.4389144 -0.5 1.4551854 6.880545e-39
1.5543257 -0.5 1.4338932 6.880545e-39
1.6564955 -0.5 1.446541 6.880545e-39
1.7690204 -0.5 1.4336203 6.880545e-39
1.8517246 -0.5 1.452598 6.880545e-39
1.9498084 -0.5 1.4476786 6.880545e-39
2.0451365 -0.5 1.4664929 6.880545e-39
2.1707261 -0.5 1.4624001 6.880545e-39
2.2422993 -0.5 1.4486564 6.880545e-39
2.3491645 -0.5 1.4544959 6.880545e-39
2.4391382 -0.5 1.4416618 6.880545e-39
2.5443499 -0.5 1.435986 6.880545e-39
2.6459632 -0.5 1.4355111 6.880545e-39
2.7696617 -0.5 1.4507291 6.880545e-39
2.8447113 -0.5 1.4348066 6.880545e-39
2.9438126 -0.5 1.4404546 6.880545e-39
0.5 -2.9767442 1.5571014 6.880545e-39
0.5 -2.8592899 1.5410358 6.880545e-39
0.5 -2.7548683 1.543389 6.880545e-39
0.5 -2.6560884 1.5574517 6.880545e-39
0.5 -2.5363517 1.5532993 6.880545e-39
0.5 -2.4405668 1.5496316 6.880545e-39
0.5 -2.3530726 1.5555503 6.880545e-39
0.5 -2.2516992 1.5438894 6.880545e-39
0.5 -2.1635475 1.5548518 6.880545e-39
0.5 -2.0517042 1.5473865 6.880545e-39
0.5 -1.9727293 1.5578077 6.880545e-39
0.5 -1.8529521 1.5371768 6.880545e-39
0.5 -1.7628053 1.5521462 6.880545e-39
0.5 -1.6464118 1.5385929 6.880545e-39
0.5 -1.5306633 1.5511769 6.880545e-39
0.5 -1.4432607 1.562695 6.880545e-39
0.5 -1.3612581 1.5503151 6.880545e-39
0.5 -1.2594538 1.5548817 6.880545e-39
0.5 -1.1350754 1.5358791 6.880545e-39
0.5 -1.0230684 1.5423696 6.880545e-39
0.5 -0.96076423 1.5382096 6.880545e-39
0.5 -0.83648193 1.5579592 6.880545e-39
0.5 -0.72864383 1.553936 6.880545e-39
0.5 -0.65021598 1.5424927 6.880545e-39
0.5 -0.53839463 1.5677532 6.880545e-39
0.54525936 -0.5 1.561089 6.880545e-39
0.63309026 -0.5 1.5722188 6.880545e-39
0.74631131 -0.5 1.5452729 6.880545e-39
0.86136568 -0.5 1.5306171 6.880545e-39
0.9438833 -0.5 1.5688201 6.880545e-39
1.0453986 -0.5 1.546775 6.880545e-39
1.1455553 -0.5 1.5615356 6.880545e-39
1.260496 -0.5 1.5479712 6.880545e-39
1.364028 -0.5 1.5539267 6.880545e-39
1.436035 -0.5 1.5554441 6.880545e-39
1.5339475 -0.5 1.5413032 6.880545e-39
1.6491416 -0.5 1.5576153 6.880545e-39
1.7595212 -0.5 1.587535 6.880545e-39
1.8676902 -0.5 1.5481867 6.880545e-39
1.972489 -0.5 1.551506 6.880545e-39
2.0355561 -0.5 1.5465099 6.880545e-39
2.1504719 -0.5 1.5508866 6.880545e-39
2.2400918 -0.5 1.545761 6.880545e-39
2.3375709 -0.5 1.5401694 6.880545e-39
2.4540188 -0.5 1.5557587 6.880545e-39
2.5673022 -0.5 1.5692682 6.880545e-39
2.6447587 -0.5 1.5596014 6.880545e-39
2.7407527 -0.5 1.544978 6.880545e-39
2.8586357 -0.5 1.5511364 6.880545e-39
2.9476764 -0.5 1.5824338 6.880545e-39
0.5 -2.9534345 1.6449504 6.880545e-39
0.5 -2.8522828 1.6574271 6.880545e-39
0.5 -2.7684085 1.6315713 6.880545e-39
0.5 -2.6389852 1.6458162 6.880545e-39
0.5 -2.5561647 1.6623148 6.880545e-39
0.5 -2.4613245 1.6343325 6.880545e-39
0.5 -2.3331668 1.6623144 6.880545e-39
0.5 -2.2462029 1.6348995 6.880545e-39
0.5 -2.1388996 1.642239 6.880545e-39
0.5 -2.0318398 1.6172066 6.880545e-39
0.5 -1.947145 1.6478795 6.880545e-39
0.5 -1.8574145 1.6392198 6.880545e-39
0.5 -1.7409124 1.6752402 6.880545e-39
0.5 -1.6639851 1.6683589 6.880545e-39
0.5 -1.5506955 1.6617308 6.880545e-39
0.5 -1.45035 1.6400687 6.880545e-39
0.5 -1.3385205 1.6552039 6.880545e-39
0.5 -1.243844 1.6691029 6.880545e-39
0.5 -1.1598421 1.6486105 6.880545e-39
0.5 -1.0241398 1.647357 6.880545e-39
0.5 -0.95644641 1.6505172 6.880545e-39
0.5 -0.85065728 1.660663 6.880545e-39
0.5 -0.73942387 1.6454382 6.880545e-39
0.5 -0.65442151 1.6615765 6.880545e-39
0.5 -0.54624438 1.6617603 6.880545e-39
0.54663068 -0.5 1.639173 6.880545e-39
0.642847 -0.5 1.6546266 6.880545e-39
0.73727918 -0.5 1.6487247 6.880545e-39
0.835989 -0.5 1.626924 6.880545e-39
0.97267753 -0.5 1.6609257 6.880545e-39
1.0429476 -0.5 1.6257896 6.880545e-39
1.1530441 -0.5 1.6355709 6.880545e-39
1.2678608 -0.5 1.6337881 6.880545e-39
1.3341291 -0.5 1.6620722 6.880545e-39
1.4691404 -0.5 1.6467851 6.880545e-39
1.5517646 -0.5 1.6461217 6.880545e-39
1.6449053 -0.5 1.6038888 6.880545e-39
1.7451978 -0.5 1.6474308 6.880545e-39
1.828993 -0.5 1.6440026 6.880545e-39
1.9629316 -0.5 1.6518505 6.880545e-39
2.0688293 -0.5 1.6446419 6.880545e-39
2.1720417 -0.5 1.6330582 6.880545e-39
2.2437394 -0.5 1.668914 6.880545e-39
2.3558717 -0.5 1.6432526 6.880545e-39
2.458602 -0.5 1.633698 6.880545e-39
2.5587611 -0.5 1.6435659 6.880545e-39
2.6423373 -0.5 1.6447583 6.880545e-39
2.7703149 -0.5 1.64285 6.880545e-39
2.8192308 -0.5 1.6592637 6.880545e-39
2.929961 -0.5 1.6475284 6.880545e-39
0.5 -2.9437234 1.7454474 6.880545e-39
0.5 -2.8264821 1.7306565 6.880545e-39
0.5 -2.768388 1.7575563 6.880545e-39
0.5 -2.6535048 1.7606707 6.880545e-39
0.5 -2.5653851 1.7472615 6.880545e-39
0.5 -2.4399214 1.7776868 6.880545e-39
0.5 -2.3685482 1.7686617 6.880545e-39
0.5 -2.2516043 1.7568091 6.880545e-39
0.5 -2.1431713 1.7546892 6.880545e-39
0.5 -2.0572467 1.746013 6.880545e-39
0.5 -1.9625949 1.770944 6.880545e-39
0.5 -1.8444089 1.7526792 6.880545e-39
0.5 -1.7516944 1.7448097 6.880545e-39
0.5 -1.6475192 1.7492272 6.880545e-39
0.5 -1.5421991 1.7342017 6.880545e-39
0.5 -1.4421591 1.7455717 6.880545e-39
0.5 -1.3468828 1.7534549 6.880545e-39
0.5 -1.2589267 1.746492 6.880545e-39
0.5 -1.1787399 1.7543755 6.880545e-39
0.5 -1.0294422 1.715773 6.880545e-39
0.5 -0.93268239 1.7742671 6.880545e-39
0.5 -0.86334336 1.7518324 6.880545e-39
0.5 -0.76081359 1.714256 6.880545e-39
0.5 -0.65662795 1.7452058 6.880545e-39
0.5 -0.55242616 1.7600362 6.880545e-39
0.55966395 -0.5 1.7500346 6.880545e-39
0.66490698 -0.5 1.7430284 6.880545e-39
0.76711202 -0.5 1.7678926 6.880545e-39
0.84239948 -0.5 1.7516234 6.880545e-39
0.95774025 -0.5 1.7554705 6.880545e-39
1.0573606 -0.5 1.7560158 6.880545e-39
1.1660388 -0.5 1.7349529 6.880545e-39
1.2559844 -0.5 1.7816272 6.880545e-39
1.3489714 -0.5 1.7418675 6.880545e-39
1.4512759 -0.5 1.7534084 6.880545e-39
1.5499557 -0.5 1.7459395 6.880545e-39
1.6545694 -0.5 1.7582935 6.880545e-39
1.7690951 -0.5 1.7518737 6.880545e-39
1.8444911 -0.5 1.7467742 6.880545e-39
1.9526018 -0.5 1.7501736 6.880545e-39
2.049274 -0.5 1.7347152 6.880545e-39
2.1495521 -0.5 1.7565823 6.880545e-39
2.2476776 -0.5 1.7505234 6.880545e-39
2.3404505 -0.5 1.7330059 6.880545e-39
2.4587724 -0.5 1.7508752 6.880545e-39
2.5352132 -0.5 1.7382463 6.880545e-39
2.6506317 -0.5 1.7586564 6.880545e-39
2.8455715 -0.5 1.7500734 6.880545e-39
2.941663 -0.5 1.7396458 6.880545e-39
0.5 -2.9466605 1.839035 6.880545e-39
0.5 -2.8529143 1.8520594 6.880545e-39
0.5 -2.7540829 1.851356 6.880545e-39
0.5 -2.64504 1.8399696 6.880545e-39
0.5 -2.5615127 1.837141 6.880545e-39
0.5 -2.4264376 1.841876 6.880545e-39
0.5 -2.3552699 1.8309473 6.880545e-39
0.5 -2.2544575 1.8312654 6.880545e-39
0.5 -2.1508939 1.8550892 6.880545e-39
0.5 -2.0715609 1.8470374 6.880545e-39
0.5 -1.9410331 1.8295844 6.880545e-39
0.5 -1.853928 1.8492749 6.880545e-39
0.5 -1.7529501 1.8546598 6.880545e-39
0.5 -1.6561763 1.8509097 6.880545e-39
0.5 -1.5510936 1.8451276 6.880545e-39
0.5 -1.4279093 1.8315489 6.880545e-39
0.5 -1.355649 1.8653393 6.880545e-39
0.5 -1.2765338 1.8365461 6.880545e-39
0.5 -1.1469406 1.8629665 6.880545e-39
0.5 -1.0529828 1.8485985 6.880545e-39
0.5 -0.94478738 1.844764 6.880545e-39
0.5 -0.84239203 1.8410574 6.880545e-39
0.5 -0.7535308 1.8540829 6.880545e-39
0.5 -0.65169591 1.8350251 6.880545e-39
0.5 -0.53373289 1.8480616 6.880545e-39
0.54955512 -0.5 1.840305 6.880545e-39
0.65492254 -0.5 1.8445297 6.880545e-39
0.77006871 -0.5 1.8597515 6.880545e-39
0.93987799 -0.5 1.8537432 6.880545e-39
1.0600806 -0.5 1.8490238 6.880545e-39
1.1577735 -0.5 1.8313006 6.880545e-39
1.2396972 -0.5 1.8453783 6.880545e-39
1.3545529 -0.5 1.8552535 6.880545e-39
1.4238181 -0.5 1.8666433 6.880545e-39
1.5447172 -0.5 1.8563584 6.880545e-39
1.6584327 -0.5 1.8352219 6.880545e-39
1.7487104 -0.5 1.8587607 6.880545e-39
1.8425244 -0.5 1.8557587 6.880545e-39
1.9608176 -0.5 1.8433259 6.880545e-39
2.0358131 -0.5 1.8626037 6.880545e-39
2.1591601 -0.5 1.8562287 6.880545e-39
2.2326322 -0.5 1.8528576 6.880545e-39
2.3521018 -0.5 1.8563887 6.880545e-39
2.4102278 -0.5 1.858988 6.880545e-39
2.555593 -0.5 1.8649585 6.880545e-39
2.6652355 -0.5 1.8290138 6.880545e-39
2.7388253 -0.5 1.8651638 6.880545e-39
2.8512471 -0.5 1.8642569 6.880545e-39
2.9343972 -0.5 1.8495339 6.880545e-39
0.5 -2.9634042 1.9163971 6.880545e-39
0.5 -2.8589463 1.9564662 6.880545e-39
0.5 -2.7658927 1.945968 6.880545e-39
0.5 -2.6474662 1.9607805 6.880545e-39
0.5 -2.5503407 1.9411358 6.880545e-39
0.5 -2.469502 1.966759 6.880545e-39
0.5 -2.3519199 1.9522324 6.880545e-39
0.5 -2.2458079 1.964077 6.880545e-39
0.5 -2.1505136 1.9498804 6.880545e-39
0.5 -2.0314391 1.929515 6.880545e-39
0.5 -1.9414687 1.9582458 6.880545e-39
0.5 -1.8803295 1.9487 6.880545e-39
0.5 -1.7586825 1.9338019 6.880545e-39
0.5 -1.6591109 1.941449 6.880545e-39
0.5 -1.5365009 1.9381065 6.880545e-39
0.5 -1.4487096 1.9617313 6.880545e-39
0.5 -1.3386983 1.9384905 6.880545e-39
0.5 -1.2219461 1.9572239 6.880545e-39
0.5 -1.150457 1.9481068 6.880545e-39
0.5 -1.055578 1.9453859 6.880545e-39
0.5 -0.94812155 1.9455433 6.880545e-39
0.5 -0.82746315 1.9547819 6.880545e-39
0.5 -0.7453739 1.9396162 6.880545e-39
0.5 -0.64241511 1.9646746 6.880545e-39
0.5 -0.52428293 1.9599059 6.880545e-39
0.5770629 -0.5 1.9569238 6.880545e-39
0.67863548 -0.5 1.9490311 6.880545e-39
0.73786533 -0.5 1.9511538 6.880545e-39
0.83232087 -0.5 1.9557685 6.880545e-39
0.9267047 -0.5 1.9627228 6.880545e-39
1.0382037 -0.5 1.9508882 6.880545e-39
1.1514186 -0.5 1.9422911 6.880545e-39
1.2557353 -0.5 1.9554158 6.880545e-39
1.3385515 -0.5 1.9480263 6.880545e-39
1.44019 -0.5 1.9338471 6.880545e-39
1.5637081 -0.5 1.9319336 6.880545e-39
1.6545898 -0.5 1.9505696 6.880545e-39
1.7334976 -0.5 1.9584073 6.880545e-39
1.8377821 -0.5 1.945002 6.880545e-39
1.9579594 -0.5 1.9514713 6.880545e-39
2.0395448 -0.5 1.9438186 6.880545e-39
2.1372368 -0.5 1.9494389 6.880545e-39
2.2295206 -0.5 1.945833 6.880545e-39
2.3262997 -0.5 1.9738796 6.880545e-39
2.4674087 -0.5 1.9385741 6.880545e-39
2.5385089 -0.5 1.9676132 6.880545e-39
2.6465807 -0.5 1.9443413 6.880545e-39
2.740407 -0.5 1.9531054 6.880545e-39
2.8610175 -0.5 1.9462575 6.880545e-39
2.9525325 -0.5 1.9362111 6.880545e-39
0.5 -2.9473166 2.0404372 6.880545e-39
0.5 -2.8502903 2.0361357 6.880545e-39
0.5 -2.7372608 2.0427206 6.880545e-39
0.5 -2.6502466 2.0590093 6.880545e-39
0.5 -2.5537777 2.0684729 6.880545e-39
0.5 -2.4532628 2.060149 6.880545e-39
0.5 -2.3783309 2.0314934 6.880545e-39
0.5 -2.238544 2.0487168 6.880545e-39
0.5 -2.1448126 2.0521123 6.880545e-39
0.5 -2.0573816 2.0550613 6.880545e-39
0.5 -1.9257001 2.0551507 6.880545e-39
0.5 -1.830651 2.0513306 6.880545e-39
0.5 -1.771037 2.0747814 6.880545e-39
0.5 -1.6540742 2.0441599 6.880545e-39
0.5 -1.5382345 2.0333164 6.880545e-39
0.5 -1.4491836 2.0636919 6.880545e-39
0.5 -1.3509045 2.0425456 6.880545e-39
0.5 -1.2379289 2.032254 6.880545e-39
0.5 -1.1545079 2.0376232 6.880545e-39
0.5 -1.060222 2.0391624 6.880545e-39
0.5 -0.9529236 2.0650902 6.880545e-39
0.5 -0.84058744 2.0526164 6.880545e-39
0.5 -0.7543332 2.0375111 6.880545e-39
0.5 -0.65769118 2.0594833 6.880545e-39
0.5 -0.54344118 2.0514603 6.880545e-39
0.55088753 -0.5 2.051631 6.880545e-39
0.64713353 -0.5 2.0437298 6.880545e-39
0.75852334 -0.5 2.0427794 6.880545e-39
0.83032387 -0.5 2.0429778 6.880545e-39
0.98614991 -0.5 2.0734222 6.880545e-39
1.0332685 -0.5 2.0690713 6.880545e-39
1.1655527 -0.5 2.0585825 6.880545e-39
1.2492244 -0.5 2.0642962 6.880545e-39
1.326986 -0.5 2.0588028 6.880545e-39
1.4589939 -0.5 2.0510349 6.880545e-39
1.5594021 -0.5 2.0564592 6.880545e-39
1.6555507 -0.5 2.0480263 6.880545e-39
1.7588845 -0.5 2.0483902 6.880545e-39
1.8637116 -0.5 2.0856793 6.880545e-39
1.9394356 -0.5 2.0481081 6.880545e-39
2.0486226 -0.5 2.0578835 6.880545e-39
2.1619964 -0.5 2.0570705 6.880545e-39
2.2536647 -0.5 2.0549796 6.880545e-39
2.385396 -0.5 2.050236 6.880545e-39
2.4671874 -0.5 2.0376022 6.880545e-39
2.5522258 -0.5 2.0543697 6.880545e-39
2.6620543 -0.5 2.0435693 6.880545e-39
2.7633951 -0.5 2.0463908 6.880545e-39
2.8474307 -0.5 2.0399315 6.880545e-39
2.9446762 -0.5 2.0262997 6.880545e-39
0.5 -2.9351387 2.157192 6.880545e-39
0.5 -2.886019 2.183542 6.880545e-39
0.5 -2.7314274 2.1535645 6.880545e-39
0.5 -2.6603756 2.1551549 6.880545e-39
0.5 -2.5166109 2.1598163 6.880545e-39
0.5 -2.4324379 2.1368306 6.880545e-39
0.5 -2.3406203 2.1692977 6.880545e-39
0.5 -2.2650647 2.1798162 6.880545e-39
0.5 -2.1186681 2.1681008 6.880545e-39
0.5 -2.0475652 2.1394925 6.880545e-39
0.5 -1.9442352 2.1246381 6.880545e-39
0.5 -1.8548166 2.1417198 6.880545e-39
0.5 -1.7396851 2.1490626 6.880545e-39
0.5 -1.6570209 2.1659408 6.880545e-39
0.5 -1.5597106 2.1451983 6.880545e-39
0.5 -1.4536263 2.1576273 6.880545e-39
0.5 -1.3375914 2.1441605 6.880545e-39
0.5 -1.2643248 2.1330409 6.880545e-39
0.5 -1.1516522 2.1293156 6.880545e-39
0.5 -1.0672246 2.1556334 6.880545e-39
0.5 -0.94408894 2.1536911 6.880545e-39
0.5 -0.86502063 2.156985 6.880545e-39
0.5 -0.76932812 2.1504557 6.880545e-39
0.5 -0.6385619 2.1668978 6.880545e-39
0.5 -0.55857223 2.1375988 6.880545e-39
0.5249548 -0.5 2.1454525 6.880545e-39
0.65373075 -0.5 2.1586683 6.880545e-39
0.7543782 -0.5 2.1718514 6.880545e-39
0.88050514 -0.5 2.1358342 6.880545e-39
0.953071 -0.5 2.1456449 6.880545e-39
1.04197 -0.5 2.1389642 6.880545e-39
1.1736284 -0.5 2.1420782 6.880545e-39
1.243751 -0.5 2.1546829 6.880545e-39
1.3460668 -0.5 2.1302876 6.880545e-39
1.4576381 -0.5 2.1815381 6.880545e-39
1.5570552 -0.5 2.1476104 6.880545e-39
1.6575541 -0.5 2.1398556 6.880545e-39
1.7596494 -0.5 2.1256783 6.880545e-39
1.8367171 -0.5 2.1398451 6.880545e-39
1.9292554 -0.5 2.1444967 6.880545e-39
2.0526304 -0.5 2.1437926 6.880545e-39
2.1397715 -0.5 2.1368313 6.880545e-39
2.2414682 -0.5 2.1480532 6.880545e-39
2.3391855 -0.5 2.1313226 6.880545e-39
2.4613764 -0.5 2.1539068 6.880545e-39
2.5592654 -0.5 2.1395075 6.880545e-39
2.6491044 -0.5 2.1528699 6.880545e-39
2.7553649 -0.5 2.1471593 6.880545e-39
2.8425052 -0.5 2.157023 6.880545e-39
2.9474611 -0.5 2.1440182 6.880545e-39
0.5 -2.948518 2.2522187 6.880545e-39
0.5 -2.833389 2.2536619 6.880545e-39
0.5 -2.7690721 2.2378561 6.880545e-39
0.5 -2.6370082 2.2365785 6.880545e-39
0.5 -2.549124 2.2646315 6.880545e-39
0.5 -2.4416749 2.2362618 6.880545e-39
0.5 -2.3570638 2.2215912 6.880545e-39
0.5 -2.2510238 2.2662721 6.880545e-39
0.5 -2.1490171 2.272836 6.880545e-39
0.5 -2.0228813 2.2435272 6.880545e-39
0.5 -1.9593732 2.2653673 6.880545e-39
0.5 -1.8748007 2.2550132 6.880545e-39
0.5 -1.7421653 2.2550702 6.880545e-39
0.5 -1.6463432 2.257581 6.880545e-39
0.5 -1.5275922 2.2426481 6.880545e-39
0.5 -1.4501079 2.240829 6.880545e-39
0.5 -1.3613286 2.2425587 6.880545e-39
0.5 -1.2514998 2.2337186 6.880545e-39
0.5 -1.1589911 2.2386661 6.880545e-39
0.5 -1.0525163 2.2518849 6.880545e-39
0.5 -0.96034622 2.2413771 6.880545e-39
0.5 -0.82859278 2.2350671 6.880545e-39
0.5 -0.77274382 2.2403481 6.880545e-39
0.5 -0.65287673 2.2433152 6.880545e-39
0.5 -0.53629023 2.2396882 6.880545e-39
0.54952198 -0.5 2.2626367 6.880545e-39
0.66161138 -0.5 2.2726107 6.880545e-39
0.75305736 -0.5 2.2475917 6.880545e-39
0.84175766 -0.5 2.2582297 6.880545e-39
0.93548179 -0.5 2.27159 6.880545e-39
1.0452244 -0.5 2.2629757 6.880545e-39
1.1576391 -0.5 2.2612379 6.880545e-39
1.2240475 -0.5 2.2698956 6.880545e-39
1.3560293 -0.5 2.2578769 6.880545e-39
1.4571707 -0.5 2.2391179 6.880545e-39
1.5421505 -0.5 2.2304008 6.880545e-39
1.6542951 -0.5 2.2469792 6.880545e-39
1.7615525 -0.5 2.236788 6.880545e-39
1.850551 -0.5 2.2495222 6.880545e-39
1.9582946 -0.5 2.2709157 6.880545e-39
2.0320349 -0.5 2.2488387 6.880545e-39
2.1382251 -0.5 2.2343531 6.880545e-39
2.2602766 -0.5 2.2478342 6.880545e-39
2.3671713 -0.5 2.2464724 6.880545e-39
2.4779041 -0.5 2.2533245 6.880545e-39
2.5625222 -0.5 2.2529869 6.880545e-39
2.6468849 -0.5 2.2274635 6.880545e-39
2.739799 -0.5 2.244956 6.880545e-39
2.8580348 -0.5 2.2246461 6.880545e-39
2.9584088 -0.5 2.272871 6.880545e-39
0.5 -2.9573421 2.3488591 6.880545e-39
0.5 -2.8563421 2.3352396 6.880545e-39
0.5 -2.7229779 2.3609383 6.880545e-39
0.5 -2.6441202 2.341188 6.880545e-39
0.5 -2.5622828 2.3602781 6.880545e-39
0.5 -2.4390461 2.3455493 6.880545e-39
0.5 -2.3529189 2.3565938 6.880545e-39
0.5 -2.2525308 2.3604503 6.880545e-39
0.5 -2.1506073 2.3546844 6.880545e-39
0.5 -2.0768702 2.3427269 6.880545e-39
0.5 -1.938532 2.3469927 6.880545e-39
0.5 -1.8525153 2.3324044 6.880545e-39
0.5 -1.7510179 2.3478014 6.880545e-39
0.5 -1.6475432 2.3555148 6.880545e-39
0.5 -1.5503443 2.3403389 6.880545e-39
0.5 -1.441368 2.3512433 6.880545e-39
0.5 -1.3493167 2.349005 6.880545e-39
0.5 -1.2364635 2.3511074 6.880545e-39
0.5 -1.1616085 2.3506975 6.880545e-39
0.5 -1.0357766 2.3464453 6.880545e-39
0.5 -0.95661783 2.3404505 6.880545e-39
0.5 -0.84095579 2.3508368 6.880545e-39
0.5 -0.75947827 2.3396707 6.880545e-39
0.5 -0.64034277 2.3503544 6.880545e-39
0.5 -0.54481769 2.3584516 6.880545e-39
0.54250503 -0.5 2.3727055 6.880545e-39
0.63523436 -0.5 2.3442299 6.880545e-39
0.7380504 -0.5 2.3644822 6.880545e-39
0.84971017 -0.5 2.3442194 6.880545e-39
0.95235014 -0.5 2.3382161 6.880545e-39
1.0447234 -0.5 2.3496237 6.880545e-39
1.1572378 -0.5 2.3484881 6.880545e-39
1.2462578 -0.5 2.344219 6.880545e-39
1.3338678 -0.5 2.3375876 6.880545e-39
1.462292 -0.5 2.3552032 6.880545e-39
1.5478706 -0.5 2.3561015 6.880545e-39
1.6461797 -0.5 2.364466 6.880545e-39
1.7344564 -0.5 2.3431983 6.880545e-39
1.8360527 -0.5 2.3472576 6.880545e-39
1.9345526 -0.5 2.3558388 6.880545e-39
2.0477846 -0.5 2.3532846 6.880545e-39
2.1366563 -0.5 2.3295598 6.880545e-39
2.2474046 -0.5 2.3463583 6.880545e-39
2.3398056 -0.5 2.3472786 6.880545e-39
2.4487443 -0.5 2.360194 6.880545e-39
2.5617342 -0.5 2.3463135 6.880545e-39
2.642894 -0.5 2.3723578 6.880545e-39
2.7273614 -0.5 2.3561041 6.880545e-39
2.855726 -0.5 2.3553364 6.880545e-39
2.9435866 -0.5 2.3510792 6.880545e-39
0.5 -2.9459462 2.4773662 6.880545e-39
0.5 -2.8353865 2.4529283 6.880545e-39
0.5 -2.7544494 2.4445515 6.880545e-39
0.5 -2.6470418 2.4480481 6.880545e-39
0.5 -2.5772586 2.4518266 6.880545e-39
0.5 -2.4749031 2.4612622 6.880545e-39
0.5 -2.3574877 2.4598806 6.880545e-39
0.5 -2.2664034 2.4425614 6.880545e-39
0.5 -2.1457899 2.4555931 6.880545e-39
0.5 -2.0337439 2.4504156 6.880545e-39
0.5 -1.9678413 2.4319196 6.880545e-39
0.5 -1.841333 2.4418459 6.880545e-39
0.5 -1.7531507 2.441231 6.880545e-39
0.5 -1.657423 2.4463465 6.880545e-39
0.5 -1.5589663 2.436847 6.880545e-39
0.5 -1.4380093 2.4503222 6.880545e-39
0.5 -1.3549407 2.4543862 6.880545e-39
0.5 -1.2761817 2.4360619 6.880545e-39
0.5 -1.1595017 2.4306889 6.880545e-39
0.5 -1.0572931 2.4594243 6.880545e-39
0.5 -0.9488852 2.4525964 6.880545e-39
0.5 -0.88081729 2.4436729 6.880545e-39
0.5 -0.75233066 2.4616017 6.880545e-39
0.5 -0.63406509 2.4458675 6.880545e-39
0.5 -0.51993906 2.4912367 6.880545e-39
0.54375207 -0.5 2.453474 6.880545e-39
0.65077657 -0.5 2.4500077 6.880545e-39
0.77269983 -0.5 2.4468162 6.880545e-39
0.82070684 -0.5 2.4085541 6.880545e-39
0.94589651 -0.5 2.4477839 6.880545e-39
1.052883 -0.5 2.4544513 6.880545e-39
1.162915 -0.5 2.4540336 6.880545e-39
1.23263 -0.5 2.4646769 6.880545e-39
1.3458738 -0.5 2.4298253 6.880545e-39
1.4246579 -0.5 2.4494803 6.880545e-39
1.5444068 -0.5 2.4563806 6.880545e-39
1.6500071 -0.5 2.4792931 6.880545e-39
1.7513121 -0.5 2.4455817 6.880545e-39
1.8676088 -0.5 2.4547873 6.880545e-39
1.9700912 -0.5 2.4318359 6.880545e-39
2.0433862 -0.5 2.4508951 6.880545e-39
2.1537519 -0.5 2.4346962 6.880545e-39
2.2550051 -0.5 2.4584301 6.880545e-39
2.3489327 -0.5 2.4329677 6.880545e-39
2.4534543 -0.5 2.4504941 6.880545e-39
2.5657437 -0.5 2.4292514 6.880545e-39
2.6461959 -0.5 2.4380386 6.880545e-39
2.7274272 -0.5 2.4517801 6.880545e-39
2.8562863 -0.5 2.4445016 6.880545e-39
2.9538815 -0.5 2.4534035 6.880545e-39
0.5 -2.9602432 2.5481906 6.880545e-39
0.5 -2.8524399 2.5516434 6.880545e-39
0.5 -2.7753315 2.5433199 6.880545e-39
0.5 -2.6581922 2.5540597 6.880545e-39
0.5 -2.5368156 2.5426705 6.880545e-39
0.5 -2.448379 2.5476632 6.880545e-39
0.5 -2.3375299 2.5385928 6.880545e-39
0.5 -2.2663386 2.5466328 6.880545e-39
0.5 -2.1560721 2.557672 6.880545e-39
0.5 -2.0614026 2.5492845 6.880545e-39
0.5 -1.9370779 2.5553813 6.880545e-39
0.5 -1.8370464 2.5521209 6.880545e-39
0.5 -1.7444479 2.5407081 6.880545e-39
0.5 -1.6465473 2.5329328 6.880545e-39
0.5 -1.5578829 2.5355461 6.880545e-39
0.5 -1.4554409 2.5494707 6.880545e-39
0.5 -1.338907 2.553066 6.880545e-39
0.5 -1.2482327 2.5515618 6.880545e-39
0.5 -1.1384294 2.5545716 6.880545e-39
0.5 -1.0356177 2.5523624 6.880545e-39
0.5 -0.95802498 2.5480492 6.880545e-39
0.5 -0.84286064 2.5576684 6.880545e-39
0.5 -0.7352863 2.557435 6.880545e-39
0.5 -0.65101141 2.5437853 6.880545e-39
0.5 -0.55932188 2.5401974 6.880545e-39
0.55205578 -0.5 2.542855 6.880545e-39
0.64879918 -0.5 2.5565248 6.880545e-39
0.75103939 -0.5 2.5296156 6.880545e-39
0.85784405 -0.5 2.5551074 6.880545e-39
0.95057505 -0.5 2.5258768 6.880545e-39
1.0424575 -0.5 2.5512066 6.880545e-39
1.1534083 -0.5 2.5351832 6.880545e-39
1.2525864 -0.5 2.5472646 6.880545e-39
1.3654599 -0.5 2.557868 6.880545e-39
1.4582587 -0.5 2.5522921 6.880545e-39
1.5526993 -0.5 2.5478048 6.880545e-39
1.6492256 -0.5 2.540308 6.880545e-39
1.7578605 -0.5 2.5130084 6.880545e-39
1.8376352 -0.5 2.5469296 6.880545e-39
1.9600242 -0.5 2.5502703 6.880545e-39
2.0488045 -0.5 2.560149 6.880545e-39
2.1328108 -0.5 2.5415528 6.880545e-39
2.2591424 -0.5 2.5360236 6.880545e-39
2.3517842 -0.5 2.5543933 6.880545e-39
2.4415662 -0.5 2.5387075 6.880545e-39
2.5595715 -0.5 2.5395801 6.880545e-39
2.6670959 -0.5 2.5465808 6.880545e-39
2.7488799 -0.5 2.5397959 6.880545e-39
2.8509986 -0.5 2.5597723 6.880545e-39
2.9316134 -0.5 2.5398774 6.880545e-39
0.5 -2.970526 2.6594522 6.880545e-39
0.5 -2.8214698 2.6479955 6.880545e-39
0.5 -2.7666097 2.6350646 6.880545e-39
0.5 -2.6521928 2.658236 6.880545e-39
0.5 -2.5448611 2.6403241 6.880545e-39
0.5 -2.4445016 2.6400774 6.880545e-39
0.5 -2.3548796 2.6643789 6.880545e-39
0.5 -2.2446949 2.640162 6.880545e-39
0.5 -2.1630805 2.6858227 6.880545e-39
0.5 -2.0516453 2.6552346 6.880545e-39
0.5 -1.9479578 2.6388953 6.880545e-39
0.5 -1.8306462 2.6524863 6.880545e-39
0.5 -1.7575858 2.6370735 6.880545e-39
0.5 -1.6410601 2.6516962 6.880545e-39
0.5 -1.5317361 2.6461682 6.880545e-39
0.5 -1.4434949 2.648098 6.880545e-39
0.5 -1.3601437 2.6493368 6.880545e-39
0.5 -1.2682714 2.6489611 6.880545e-39
0.5 -1.1488653 2.6609602 6.880545e-39
0.5 -1.0402131 2.6391814 6.880545e-39
0.5 -0.93636668 2.642417 6.880545e-39
0.5 -0.84751302 2.6451824 6.880545e-39
0.5 -0.76000297 2.630909 6.880545e-39
0.5 -0.65441388 2.6502802 6.880545e-39
0.5 -0.52535337 2.649436 6.880545e-39
0.54954851 -0.5 2.6514266 6.880545e-39
0.64175195 -0.5 2.6273968 6.880545e-39
0.73475206 -0.5 2.6466701 6.880545e-39
0.85592151 -0.5 2.6449716 6.880545e-39
0.96440345 -0.5 2.656157 6.880545e-39
1.049979 -0.5 2.6429334 6.880545e-39
1.1415319 -0.5 2.6471879 6.880545e-39
1.2615749 -0.5 2.6464081 6.880545e-39
1.3533643 -0.5 2.6558309 6.880545e-39
1.4336983 -0.5 2.6276188 6.880545e-39
1.5855515 -0.5 2.6526365 6.880545e-39
1.656922 -0.5 2.6543627 6.880545e-39
1.764562 -0.5 2.6564057 6.880545e-39
1.8517078 -0.5 2.6505754 6.880545e-39
1.9696162 -0.5 2.639888 6.880545e-39
2.0700393 -0.5 2.6443076 6.880545e-39
2.1576121 -0.5 2.6465533 6.880545e-39
2.2497628 -0.5 2.6604586 6.880545e-39
2.3573203 -0.5 2.6353676 6.880545e-39
2.4402537 -0.5 2.6587889 6.880545e-39
2.5530722 -0.5 2.6548121 6.880545e-39
2.6605341 -0.5 2.630893 6.880545e-39
2.7448797 -0.5 2.6476569 6.880545e-39
2.8545084 -0.5 2.6362512 6.880545e-39
2.9552882 -0.5 2.660713 6.880545e-39
0.5 -2.9543841 2.7520161 6.880545e-39
0.5 -2.8463233 2.7557957 6.880545e-39
0.5 -2.7520735 2.7464128 6.880545e-39
0.5 -2.6739378 2.7478464 6.880545e-39
0.5 -2.5511453 2.7591879 6.880545e-39
0.5 -2.4376757 2.7692652 6.880545e-39
0.5 -2.3489649 2.7516522 6.880545e-39
0.5 -2.2483084 2.7490969 6.880545e-39
0.5 -2.1560702 2.7540998 6.880545e-39
0.5 -2.0500998 2.7549813 6.880545e-39
0.5 -1.9554799 2.754787 6.880545e-39
0.5 -1.8503332 2.7446957 6.880545e-39
0.5 -1.7327932 2.7200623 6.880545e-39
0.5 -1.6245987 2.7992475 6.880545e-39
0.5 -1.5483691 2.7469692 6.880545e-39
0.5 -1.4612366 2.7419178 6.880545e-39
0.5 -1.3553791 2.7610743 6.880545e-39
0.5 -1.2520463 2.7503753 6.880545e-39
0.5 -1.1324654 2.7659721 6.880545e-39
0.5 -1.0486782 2.7569354 6.880545e-39
0.5 -0.93261462 2.7407908 6.880545e-39
0.5 -0.85708582 2.7386107 6.880545e-39
0.5 -0.74445719 2.7500577 6.880545e-39
0.5 -0.65919691 2.7483242 6.880545e-39
0.5 -0.54216903 2.7443748 6.880545e-39
0.54323816 -0.5 2.7544742 6.880545e-39
0.64592105 -0.5 2.7212467 6.880545e-39
0.73630512 -0.5 2.7336416 6.880545e-39
0.86336899 -0.5 2.7345283 6.880545e-39
0.92445308 -0.5 2.7670798 6.880545e-39
1.0390837 -0.5 2.7359402 6.880545e-39
1.1377242 -0.5 2.7538924 6.880545e-39
1.2440867 -0.5 2.7227461 6.880545e-39
1.3423537 -0.5 2.7581582 6.880545e-39
1.4357239 -0.5 2.7534847 6.880545e-39
1.5431776 -0.5 2.7460189 6.880545e-39
1.6675839 -0.5 2.7482502 6.880545e-39
1.7456948 -0.5 2.7543876 6.880545e-39
1.8485577 -0.5 2.747283 6.880545e-39
1.9548473 -0.5 2.7445085 6.880545e-39
2.0475023 -0.5 2.7419777 6.880545e-39
2.1748695 -0.5 2.7564178 6.880545e-39
2.264534 -0.5 2.7444673 6.880545e-39
2.368191 -0.5 2.7524509 6.880545e-39
2.423471 -0.5 2.7334554 6.880545e-39
2.5608804 -0.5 2.7641521 6.880545e-39
2.6681008 -0.5 2.7421911 6.880545e-39
2.756191 -0.5 2.7494366 6.880545e-39
2.857574 -0.5 2.7523804 6.880545e-39
2.9647017 -0.5 2.7353001 6.880545e-39
0.5 -2.9578717 2.8578787 6.880545e-39
0.5 -2.8663056 2.8597136 6.880545e-39
0.5 -2.765352 2.8341563 6.880545e-39
0.5 -2.6497343 2.8430061 6.880545e-39
0.5 -2.5579491 2.847862 6.880545e-39
0.5 -2.4740026 2.838243 6.880545e-39
0.5 -2.3377512 2.850687 6.880545e-39
0.5 -2.2624016 2.8538685 6.880545e-39
0.5 -2.1395199 2.8278365 6.880545e-39
0.5 -2.053189 2.8569663 6.880545e-39
0.5 -1.9425938 2.8586936 6.880545e-39
0.5 -1.8464302 2.8320868 6.880545e-39
0.5 -1.73761 2.8380003 6.880545e-39
0.5 -1.643923 2.8539195 6.880545e-39
0.5 -1.5624844 2.8443425 6.880545e-39
0.5 -1.4586674 2.8643239 6.880545e-39
0.5 -1.3304325 2.8358514 6.880545e-39
0.5 -1.2539682 2.8543847 6.880545e-39
0.5 -1.1334785 2.8673737 6.880545e-39
0.5 -1.040766 2.8564751 6.880545e-39
0.5 -0.92713803 2.8534884 6.880545e-39
0.5 -0.84228212 2.8647783 6.880545e-39
0.5 -0.76214504 2.8569255 6.880545e-39
