# .PCD v0.7 - Point Cloud Data file format
VERSION 0.7
FIELDS x y z rgb
SIZE 4 4 4 4
TYPE F F F F
COUNT 1 1 1 1
WIDTH 1231
HEIGHT 1
VIEWPOINT 0 0 0 1 0 0 0
POINTS 1231
DATA ascii
0.5 1.6419834 -0.35821605 1.8893241e-38
0.5 1.7301744 -0.36395767 1.8893241e-38
0.5 1.8414037 -0.33111495 1.8893241e-38
0.5 1.9448636 -0.33516866 1.8893241e-38
0.5 2.0574152 -0.33713543 1.8893241e-38
0.5 2.1644235 -0.3267895 1.8893241e-38
0.5 2.2343314 -0.35245731 1.8893241e-38
0.5 2.3634133 -0.33106446 1.8893241e-38
0.5 2.4483609 -0.36471179 1.8893241e-38
0.5 2.538847 -0.35242987 1.8893241e-38
0.5 2.6652133 -0.35395676 1.8893241e-38
0.5 2.7362304 -0.34233066 1.8893241e-38
0.5 2.9478371 -0.36694795 1.8893241e-38
0.51956969 0.51849651 -0.25554046 1.8893241e-38
0.65317547 0.5 -0.26270837 1.8893241e-38
0.75569481 0.5 -0.24259555 1.8893241e-38
0.86039668 0.5 -0.24463895 1.8893241e-38
0.96279603 0.5 -0.25867867 1.8893241e-38
1.0599254 0.5 -0.2519868 1.8893241e-38
1.1395596 0.5 -0.25832063 1.8893241e-38
1.2595922 0.5 -0.25990641 1.8893241e-38
1.3478571 0.5 -0.24645296 1.8893241e-38
1.453504 0.5 -0.24196553 1.8893241e-38
1.5635434 0.5 -0.26142597 1.8893241e-38
1.6221665 0.5 -0.2468009 1.8893241e-38
1.7441571 0.5 -0.246075 1.8893241e-38
1.8604034 0.5 -0.26527733 1.8893241e-38
1.9596294 0.5 -0.25335205 1.8893241e-38
2.054704 0.5 -0.24542587 1.8893241e-38
2.1531551 0.5 -0.23416176 1.8893241e-38
2.2443345 0.5 -0.25369501 1.8893241e-38
2.3433664 0.5 -0.25840575 1.8893241e-38
2.433466 0.5 -0.23345482 1.8893241e-38
2.5371411 0.5 -0.23281096 1.8893241e-38
2.6751423 0.5 -0.23104486 1.8893241e-38
2.771666 0.5 -0.23731755 1.8893241e-38
2.8409979 0.5 -0.25888404 1.8893241e-38
2.9549646 0.5 -0.24184248 1.8893241e-38
0.5 0.64984143 -0.23240212 1.8893241e-38
0.5 0.76983863 -0.2370795 1.8893241e-38
0.5 0.8575806 -0.24289291 1.8893241e-38
0.5 0.96509159 -0.24518912 1.8893241e-38
0.5 1.0571777 -0.23880097 1.8893241e-38
0.5 1.1446574 -0.25509176 1.8893241e-38
0.5 1.2706883 -0.27394605 1.8893241e-38
0.5 1.3540516 -0.24309227 1.8893241e-38
0.5 1.4425529 -0.27309197 1.8893241e-38
0.5 1.5450881 -0.2616699 1.8893241e-38
0.5 1.6628231 -0.27056432 1.8893241e-38
0.5 1.7594824 -0.23846045 1.8893241e-38
0.5 1.8587645 -0.25449607 1.8893241e-38
0.5 1.9380399 -0.24914697 1.8893241e-38
0.5 2.0324271 -0.2623657 1.8893241e-38
0.5 2.1558232 -0.25328118 1.8893241e-38
0.5 2.2747042 -0.23696947 1.8893241e-38
0.5 2.3467424 -0.2572827 1.8893241e-38
0.5 2.449841 -0.25656813 1.8893241e-38
0.5 2.5482831 -0.25900841 1.8893241e-38
0.5 2.6369691 -0.24582513 1.8893241e-38
0.5 2.7818725 -0.25331208 1.8893241e-38
0.5 2.8457358 -0.26908749 1.8893241e-38
0.5 2.9502563 -0.23981072 1.8893241e-38
0.534473 0.5177086 -0.15125996 1.8893241e-38
0.65770191 0.5 -0.14762364 1.8893241e-38
0.76025665 0.5 -0.15586573 1.8893241e-38
0.84694844 0.5 -0.1359348 1.8893241e-38
0.93830335 0.5 -0.15048565 1.8893241e-38
1.0566437 0.5 -0.15084241 1.8893241e-38
1.1339309 0.5 -0.1306113 1.8893241e-38
1.2321556 0.5 -0.13881007 1.8893241e-38
1.359182 0.5 -0.16906027 1.8893241e-38
1.4299114 0.5 -0.15209383 1.8893241e-38
1.5416073 0.5 -0.17277257 1.8893241e-38
1.633515 0.5 -0.14158306 1.8893241e-38
1.7396381 0.5 -0.15122858 1.8893241e-38
1.847617 0.5 -0.14123082 1.8893241e-38
1.9449151 0.5 -0.13465622 1.8893241e-38
2.0355284 0.5 -0.16272484 1.8893241e-38
2.1554437 0.5 -0.13509475 1.8893241e-38
2.2418375 0.5 -0.14807703 1.8893241e-38
2.3651402 0.5 -0.1482747 1.8893241e-38
2.443105 0.5 -0.11261129 1.8893241e-38
2.5580118 0.5 -0.14511453 1.8893241e-38
2.6554606 0.5 -0.1467755 1.8893241e-38
2.7641938 0.5 -0.14277144 1.8893241e-38
2.846554 0.5 -0.1360992 1.8893241e-38
2.9296033 0.5 -0.14087723 1.8893241e-38
0.5 0.65385848 -0.16618192 1.8893241e-38
0.5 0.74033648 -0.1624984 1.8893241e-38
0.5 0.82203895 -0.1587669 1.8893241e-38
0.5 0.95616359 -0.16748051 1.8893241e-38
0.5 1.0553194 -0.14610755 1.8893241e-38
0.5 1.1450789 -0.15885176 1.8893241e-38
0.5 1.2400992 -0.14245677 1.8893241e-38
0.5 1.3622197 -0.15092953 1.8893241e-38
0.5 1.4722801 -0.13044144 1.8893241e-38
0.5 1.5470089 -0.15554972 1.8893241e-38
0.5 1.6491089 -0.14846247 1.8893241e-38
0.5 1.7397717 -0.14047702 1.8893241e-38
0.5 1.8595963 -0.15226409 1.8893241e-38
0.5 1.9655483 -0.14195038 1.8893241e-38
0.5 2.0691195 -0.15273449 1.8893241e-38
0.5 2.1571894 -0.15154268 1.8893241e-38
0.5 2.2608347 -0.16869561 1.8893241e-38
0.5 2.3385379 -0.18065766 1.8893241e-38
0.5 2.4428988 -0.14525351 1.8893241e-38
0.5 2.5536711 -0.14664057 1.8893241e-38
0.5 2.6417503 -0.14817744 1.8893241e-38
0.5 2.7510831 -0.1500206 1.8893241e-38
0.5 2.8410347 -0.14084511 1.8893241e-38
0.5 2.9563227 -0.16165003 1.8893241e-38
0.52607238 0.51751107 -0.0579753 1.8893241e-38
0.65424573 0.5 -0.054236628 1.8893241e-38
0.75111383 0.5 -0.063702509 1.8893241e-38
0.85684538 0.5 -0.037873924 1.8893241e-38
0.96587718 0.5 -0.031428307 1.8893241e-38
1.0415814 0.5 -0.052938357 1.8893241e-38
1.1653397 0.5 -0.038347114 1.8893241e-38
1.255443 0.5 -0.075881422 1.8893241e-38
1.3258077 0.5 -0.054081772 1.8893241e-38
1.4294994 0.5 -0.04591646 1.8893241e-38
1.538119 0.5 -0.061841171 1.8893241e-38
1.6310383 0.5 -0.025929721 1.8893241e-38
1.7506733 0.5 -0.033902682 1.8893241e-38
1.8667524 0.5 -0.065131433 1.8893241e-38
1.9458842 0.5 -0.043109458 1.8893241e-38
2.0427027 0.5 -0.032179322 1.8893241e-38
2.1510725 0.5 -0.05090411 1.8893241e-38
2.2409549 0.5 -0.041932888 1.8893241e-38
2.3606064 0.5 -0.06775637 1.8893241e-38
2.4489923 0.5 -0.052903838 1.8893241e-38
2.5433311 0.5 -0.048050717 1.8893241e-38
2.6502204 0.5 -0.06067346 1.8893241e-38
2.7499096 0.5 -0.053718235 1.8893241e-38
2.8364108 0.5 -0.068267487 1.8893241e-38
2.9163063 0.5 -0.044209093 1.8893241e-38
0.5 0.66493273 -0.0291593 1.8893241e-38
0.5 0.75001132 -0.059519447 1.8893241e-38
0.5 0.85872281 -0.063592218 1.8893241e-38
0.5 0.94957912 -0.056738362 1.8893241e-38
0.5 1.0438432 -0.052500259 1.8893241e-38
0.5 1.1480155 -0.056369297 1.8893241e-38
0.5 1.2461556 -0.044412103 1.8893241e-38
0.5 1.3556149 -0.057339627 1.8893241e-38
0.5 1.441193 -0.042805105 1.8893241e-38
0.5 1.5371072 -0.052132145 1.8893241e-38
0.5 1.6463076 -0.055691507 1.8893241e-38
0.5 1.7340143 -0.044985428 1.8893241e-38
0.5 1.8532654 -0.052961335 1.8893241e-38
0.5 1.9289089 -0.060591459 1.8893241e-38
0.5 2.0439405 -0.031925999 1.8893241e-38
0.5 2.1621339 -0.052784726 1.8893241e-38
0.5 2.2247138 -0.04320056 1.8893241e-38
0.5 2.3264334 -0.031739209 1.8893241e-38
0.5 2.4527278 -0.036732074 1.8893241e-38
0.5 2.5054832 -0.011959368 1.8893241e-38
0.5 2.6606188 -0.041510165 1.8893241e-38
0.5 2.7625182 -0.055312268 1.8893241e-38
0.5 2.8437221 -0.068222813 1.8893241e-38
0.5 2.9455884 -0.063047379 1.8893241e-38
0.5126164 0.54284739 0.043404546 1.8893241e-38
0.6399368 0.5 0.043838836 1.8893241e-38
0.76471972 0.5 0.045650862 1.8893241e-38
0.83682615 0.5 0.0587781 1.8893241e-38
0.93815297 0.5 0.040067643 1.8893241e-38
1.0424809 0.5 0.054684203 1.8893241e-38
1.1743711 0.5 0.074372374 1.8893241e-38
1.2369635 0.5 0.060270797 1.8893241e-38
1.3488595 0.5 0.047921669 1.8893241e-38
1.444738 0.5 0.035993889 1.8893241e-38
1.5213201 0.5 0.060003765 1.8893241e-38
1.67274 0.5 0.043483488 1.8893241e-38
1.7384921 0.5 0.038905863 1.8893241e-38
1.8600382 0.5 0.037733898 1.8893241e-38
1.9484743 0.5 0.030068874 1.8893241e-38
2.0515971 0.5 0.042934485 1.8893241e-38
2.1504989 0.5 0.055219546 1.8893241e-38
2.2670937 0.5 0.06852603 1.8893241e-38
2.3647416 0.5 0.051865697 1.8893241e-38
2.451189 0.5 0.068941347 1.8893241e-38
2.538512 0.5 0.067424856 1.8893241e-38
2.6456854 0.5 0.054554198 1.8893241e-38
2.7560806 0.5 0.037041098 1.8893241e-38
2.8341358 0.5 0.049937468 1.8893241e-38
2.9652929 0.5 0.064425349 1.8893241e-38
0.5 0.66057736 0.03045387 1.8893241e-38
0.5 0.756172 0.04137731 1.8893241e-38
0.5 0.87423176 0.038400706 1.8893241e-38
0.5 0.93169379 0.034504887 1.8893241e-38
0.5 1.0493404 0.061347198 1.8893241e-38
0.5 1.1464663 0.056539554 1.8893241e-38
0.5 1.240852 0.057186782 1.8893241e-38
0.5 1.3545511 0.055678137 1.8893241e-38
0.5 1.4492062 0.055393539 1.8893241e-38
0.5 1.5546001 0.038596414 1.8893241e-38
0.5 1.6413342 0.054882344 1.8893241e-38
0.5 1.7469927 0.02397196 1.8893241e-38
0.5 1.8370274 0.047236282 1.8893241e-38
0.5 1.9495351 0.060240041 1.8893241e-38
0.5 2.0577343 0.053836077 1.8893241e-38
0.5 2.141942 0.038515486 1.8893241e-38
0.5 2.2306209 0.06154421 1.8893241e-38
0.5 2.3475585 0.053802785 1.8893241e-38
0.5 2.4471126 0.040656529 1.8893241e-38
0.5 2.5400054 0.061863273 1.8893241e-38
0.5 2.6652932 0.033452097 1.8893241e-38
0.5 2.7471237 0.051603459 1.8893241e-38
0.5 2.8437793 0.052802444 1.8893241e-38
0.5 2.9259293 0.041274227 1.8893241e-38
0.51624948 0.52799755 0.15343986 1.8893241e-38
0.65346473 0.5 0.15829223 1.8893241e-38
0.77160811 0.5 0.13551161 1.8893241e-38
0.83060753 0.5 0.14963366 1.8893241e-38
0.96672153 0.5 0.16551556 1.8893241e-38
1.0283875 0.5 0.14428593 1.8893241e-38
1.1530892 0.5 0.14641708 1.8893241e-38
1.2270257 0.5 0.15180679 1.8893241e-38
1.3421293 0.5 0.14393735 1.8893241e-38
1.4330662 0.5 0.1558409 1.8893241e-38
1.557691 0.5 0.1538896 1.8893241e-38
1.6373459 0.5 0.16787358 1.8893241e-38
1.7738328 0.5 0.14000498 1.8893241e-38
1.8501532 0.5 0.12621921 1.8893241e-38
1.939509 0.5 0.1365582 1.8893241e-38
2.0489011 0.5 0.14966799 1.8893241e-38
2.150346 0.5 0.16075125 1.8893241e-38
2.254215 0.5 0.14149429 1.8893241e-38
2.3421001 0.5 0.15288347 1.8893241e-38
2.4388578 0.5 0.12938209 1.8893241e-38
2.5425625 0.5 0.16186963 1.8893241e-38
2.6468625 0.5 0.15744027 1.8893241e-38
2.760067 0.5 0.13769235 1.8893241e-38
2.8465889 0.5 0.17666364 1.8893241e-38
2.9380696 0.5 0.17352286 1.8893241e-38
0.5 0.65611219 0.1529294 1.8893241e-38
0.5 0.73591006 0.15217242 1.8893241e-38
0.5 0.84571707 0.17561357 1.8893241e-38
0.5 0.95265067 0.1229853 1.8893241e-38
0.5 1.0553863 0.14676514 1.8893241e-38
0.5 1.1391692 0.12692705 1.8893241e-38
0.5 1.2227159 0.13493362 1.8893241e-38
0.5 1.3422157 0.1607713 1.8893241e-38
0.5 1.4472798 0.17040682 1.8893241e-38
0.5 1.5482864 0.14671426 1.8893241e-38
0.5 1.6452074 0.16348056 1.8893241e-38
0.5 1.7309557 0.14545274 1.8893241e-38
0.5 1.852708 0.16305099 1.8893241e-38
0.5 1.9348313 0.15662964 1.8893241e-38
0.5 2.0233519 0.16873436 1.8893241e-38
0.5 2.1578617 0.15290865 1.8893241e-38
0.5 2.2343321 0.16242905 1.8893241e-38
0.5 2.3310292 0.17394868 1.8893241e-38
0.5 2.4045734 0.16003877 1.8893241e-38
0.5 2.5539799 0.15263873 1.8893241e-38
0.5 2.662781 0.16198543 1.8893241e-38
0.5 2.7372923 0.14745441 1.8893241e-38
0.5 2.8626633 0.16648465 1.8893241e-38
0.5 2.9435601 0.14601585 1.8893241e-38
0.54026818 0.51922739 0.24813065 1.8893241e-38
0.65994084 0.5 0.27634975 1.8893241e-38
0.73929131 0.5 0.26253778 1.8893241e-38
0.85559273 0.5 0.24808685 1.8893241e-38
0.95763481 0.5 0.24995685 1.8893241e-38
1.0429807 0.5 0.2638455 1.8893241e-38
1.135524 0.5 0.24235308 1.8893241e-38
1.2127054 0.5 0.23754607 1.8893241e-38
1.3612735 0.5 0.25867373 1.8893241e-38
1.4529253 0.5 0.25185761 1.8893241e-38
1.5536742 0.5 0.25039253 1.8893241e-38
1.6512944 0.5 0.20120321 1.8893241e-38
1.7598732 0.5 0.22403617 1.8893241e-38
1.8420871 0.5 0.24704905 1.8893241e-38
1.9498868 0.5 0.25521052 1.8893241e-38
2.0378273 0.5 0.25286764 1.8893241e-38
2.1544437 0.5 0.27198371 1.8893241e-38
2.2359807 0.5 0.27204195 1.8893241e-38
2.3701487 0.5 0.25133824 1.8893241e-38
2.4539363 0.5 0.26115525 1.8893241e-38
2.5581727 0.5 0.24672358 1.8893241e-38
2.6619427 0.5 0.2504327 1.8893241e-38
2.7569919 0.5 0.24062078 1.8893241e-38
2.8436191 0.5 0.25767666 1.8893241e-38
2.9343369 0.5 0.26849675 1.8893241e-38
0.5 0.64694542 0.25552508 1.8893241e-38
0.5 0.75456411 0.24950677 1.8893241e-38
0.5 0.84805143 0.24576715 1.8893241e-38
0.5 0.95019501 0.27387246 1.8893241e-38
0.5 1.0722309 0.25717467 1.8893241e-38
0.5 1.1633698 0.25345278 1.8893241e-38
0.5 1.2515991 0.23703083 1.8893241e-38
0.5 1.362883 0.24616371 1.8893241e-38
0.5 1.4576993 0.25422764 1.8893241e-38
0.5 1.5338593 0.23822029 1.8893241e-38
0.5 1.640278 0.25150368 1.8893241e-38
0.5 1.7580841 0.24302945 1.8893241e-38
0.5 1.8468697 0.24034235 1.8893241e-38
0.5 1.9511232 0.25405893 1.8893241e-38
0.5 2.0727539 0.25385812 1.8893241e-38
0.5 2.129647 0.24209704 1.8893241e-38
0.5 2.2195232 0.22909468 1.8893241e-38
0.5 2.3481996 0.24588618 1.8893241e-38
0.5 2.4591992 0.25863114 1.8893241e-38
0.5 2.5547733 0.26388678 1.8893241e-38
0.5 2.6370966 0.28505409 1.8893241e-38
0.5 2.7412941 0.25607809 1.8893241e-38
0.5 2.8531971 0.25111508 1.8893241e-38
0.5 2.9535182 0.25414434 1.8893241e-38
0.52515239 0.50980902 0.34322396 1.8893241e-38
0.67394346 0.5 0.34159607 1.8893241e-38
0.74330175 0.5 0.35834026 1.8893241e-38
0.86189699 0.5 0.35727045 1.8893241e-38
0.94990367 0.5 0.3312 1.8893241e-38
1.042195 0.5 0.33912936 1.8893241e-38
1.1439171 0.5 0.33850363 1.8893241e-38
1.2372837 0.5 0.34955558 1.8893241e-38
1.3682286 0.5 0.358419 1.8893241e-38
1.4264348 0.5 0.33970803 1.8893241e-38
1.5523615 0.5 0.35777643 1.8893241e-38
1.6443539 0.5 0.34612852 1.8893241e-38
1.7656037 0.5 0.34356588 1.8893241e-38
1.8593211 0.5 0.35950083 1.8893241e-38
1.9375112 0.5 0.36465952 1.8893241e-38
2.0556176 0.5 0.34715685 1.8893241e-38
2.1451073 0.5 0.35991296 1.8893241e-38
2.2447443 0.5 0.36569941 1.8893241e-38
2.3419297 0.5 0.35772336 1.8893241e-38
2.4369512 0.5 0.35321566 1.8893241e-38
2.554184 0.5 0.34673998 1.8893241e-38
2.6306927 0.5 0.34560189 1.8893241e-38
2.7418787 0.5 0.33528432 1.8893241e-38
2.8647106 0.5 0.34467912 1.8893241e-38
2.9425709 0.5 0.3490037 1.8893241e-38
0.5 0.63091081 0.35323158 1.8893241e-38
0.5 0.75281072 0.35838267 1.8893241e-38
0.5 0.84889197 0.34817559 1.8893241e-38
0.5 0.94257641 0.32871583 1.8893241e-38
0.5 1.0695266 0.37727693 1.8893241e-38
0.5 1.1459913 0.34808511 1.8893241e-38
0.5 1.2740731 0.3505162 1.8893241e-38
0.5 1.3413739 0.35018963 1.8893241e-38
0.5 1.4638584 0.34047627 1.8893241e-38
0.5 1.5587578 0.36569574 1.8893241e-38
0.5 1.6752262 0.34646329 1.8893241e-38
0.5 1.7416911 0.36929643 1.8893241e-38
0.5 1.8583063 0.34265432 1.8893241e-38
0.5 1.952794 0.34776649 1.8893241e-38
0.5 2.0474463 0.36358365 1.8893241e-38
0.5 2.1560955 0.37318537 1.8893241e-38
0.5 2.2632256 0.32533613 1.8893241e-38
0.5 2.3453929 0.33718592 1.8893241e-38
0.5 2.4708447 0.33869737 1.8893241e-38
0.5 2.5501988 0.34886771 1.8893241e-38
0.5 2.6535013 0.35365188 1.8893241e-38
0.5 2.758878 0.35418642 1.8893241e-38
0.5 2.8513801 0.3386502 1.8893241e-38
0.5 2.9801986 0.36424956 1.8893241e-38
0.50352031 0.556104 0.44733563 1.8893241e-38
0.65546668 0.5 0.46602917 1.8893241e-38
0.7455067 0.5 0.4598799 1.8893241e-38
0.84076124 0.5 0.43374041 1.8893241e-38
0.9548651 0.5 0.44364867 1.8893241e-38
1.0688683 0.5 0.45851651 1.8893241e-38
1.1518984 0.5 0.44198424 1.8893241e-38
1.2615926 0.5 0.46867141 1.8893241e-38
1.3509171 0.5 0.47835645 1.8893241e-38
1.4616209 0.5 0.44229096 1.8893241e-38
1.544502 0.5 0.44715866 1.8893241e-38
1.6374899 0.5 0.45173672 1.8893241e-38
1.7713149 0.5 0.46169913 1.8893241e-38
1.8592361 0.5 0.44006959 1.8893241e-38
1.9458023 0.5 0.45332652 1.8893241e-38
2.0383434 0.5 0.45128801 1.8893241e-38
2.1851978 0.5 0.44292557 1.8893241e-38
2.2377746 0.5 0.48080489 1.8893241e-38
2.3380144 0.5 0.46241629 1.8893241e-38
2.4658961 0.5 0.47020754 1.8893241e-38
2.5554681 0.5 0.46560359 1.8893241e-38
2.6440125 0.5 0.45463628 1.8893241e-38
2.7502344 0.5 0.45468876 1.8893241e-38
2.8637478 0.5 0.45652947 1.8893241e-38
2.964941 0.5 0.44923076 1.8893241e-38
0.5 0.65419686 0.45358133 1.8893241e-38
0.5 0.7501232 0.43394366 1.8893241e-38
0.5 0.85661989 0.44952792 1.8893241e-38
0.5 0.94342375 0.43681994 1.8893241e-38
0.5 1.0438566 0.4575828 1.8893241e-38
0.5 1.1611146 0.44860551 1.8893241e-38
0.5 1.256669 0.46244979 1.8893241e-38
0.5 1.3326445 0.46574044 1.8893241e-38
0.5 1.4830185 0.41399994 1.8893241e-38
0.5 1.5438422 0.44054773 1.8893241e-38
0.5 1.6422297 0.46672732 1.8893241e-38
0.5 1.7471812 0.45198995 1.8893241e-38
0.5 1.8418666 0.45699224 1.8893241e-38
0.5 1.9455874 0.44123861 1.8893241e-38
0.5 2.0487094 0.44823852 1.8893241e-38
0.5 2.1610053 0.45295429 1.8893241e-38
0.5 2.2516456 0.4539265 1.8893241e-38
0.5 2.3476212 0.43948987 1.8893241e-38
0.5 2.4421785 0.44071218 1.8893241e-38
0.5 2.5789602 0.45073429 1.8893241e-38
0.5 2.6531684 0.45603347 1.8893241e-38
0.5 2.7467637 0.45213079 1.8893241e-38
0.5 2.8471012 0.45624852 1.8893241e-38
0.5 2.9548287 0.44191629 1.8893241e-38
0.50556046 0.5406363 0.55387473 1.8893241e-38
0.64454025 0.5 0.54764932 1.8893241e-38
0.72231901 0.5 0.55148667 1.8893241e-38
0.85811496 0.5 0.54086357 1.8893241e-38
0.94262439 0.5 0.55419099 1.8893241e-38
1.0541121 0.5 0.55459279 1.8893241e-38
1.1444523 0.5 0.53588104 1.8893241e-38
1.2596525 0.5 0.53771079 1.8893241e-38
1.3567568 0.5 0.54176116 1.8893241e-38
1.4619329 0.5 0.52248776 1.8893241e-38
1.5384427 0.5 0.56394827 1.8893241e-38
1.6254257 0.5 0.55494195 1.8893241e-38
1.7557672 0.5 0.55154395 1.8893241e-38
1.8612883 0.5 0.5526706 1.8893241e-38
1.9426714 0.5 0.56837553 1.8893241e-38
2.0492256 0.5 0.54803306 1.8893241e-38
2.1652601 0.5 0.53599304 1.8893241e-38
2.2336643 0.5 0.54391611 1.8893241e-38
2.3637142 0.5 0.54133689 1.8893241e-38
2.4603314 0.5 0.53311473 1.8893241e-38
2.5523481 0.5 0.55954063 1.8893241e-38
2.6360216 0.5 0.55731291 1.8893241e-38
2.7370045 0.5 0.5354073 1.8893241e-38
2.8548889 0.5 0.53454518 1.8893241e-38
2.9355505 0.5 0.53358287 1.8893241e-38
0.5 0.65879303 0.57547343 1.8893241e-38
0.5 0.73452413 0.57101262 1.8893241e-38
0.5 0.85771412 0.54149747 1.8893241e-38
0.5 0.95442688 0.55551404 1.8893241e-38
0.5 1.0471617 0.5443207 1.8893241e-38
0.5 1.1339644 0.55085796 1.8893241e-38
0.5 1.2441049 0.55910212 1.8893241e-38
0.5 1.3384116 0.54065782 1.8893241e-38
0.5 1.4460216 0.54354966 1.8893241e-38
0.5 1.56718 0.55853754 1.8893241e-38
0.5 1.6457882 0.53345478 1.8893241e-38
0.5 1.7518862 0.56739092 1.8893241e-38
0.5 1.8592596 0.55088323 1.8893241e-38
0.5 1.9396992 0.54900104 1.8893241e-38
0.5 2.0475867 0.55215538 1.8893241e-38
0.5 2.1494358 0.55637091 1.8893241e-38
0.5 2.2399466 0.55369163 1.8893241e-38
0.5 2.3663828 0.56431752 1.8893241e-38
0.5 2.4670405 0.53166574 1.8893241e-38
0.5 2.5518382 0.54751152 1.8893241e-38
0.5 2.6591218 0.54788822 1.8893241e-38
0.5 2.7391481 0.53284913 1.8893241e-38
0.5 2.8504317 0.54134649 1.8893241e-38
0.5 2.9427986 0.53984267 1.8893241e-38
0.52068245 0.52569407 0.6595633 1.8893241e-38
0.64437312 0.5 0.64646178 1.8893241e-38
0.74959195 0.5 0.64586055 1.8893241e-38
0.83977759 0.5 0.63535273 1.8893241e-38
0.96131158 0.5 0.63795537 1.8893241e-38
1.0502546 0.5 0.66508794 1.8893241e-38
1.157475 0.5 0.65654439 1.8893241e-38
1.2371309 0.5 0.65131235 1.8893241e-38
1.3665571 0.5 0.65233451 1.8893241e-38
1.4747257 0.5 0.63483983 1.8893241e-38
1.5397937 0.5 0.63910532 1.8893241e-38
1.6637174 0.5 0.65337479 1.8893241e-38
1.7468487 0.5 0.64900887 1.8893241e-38
1.8248471 0.5 0.61488515 1.8893241e-38
1.9510424 0.5 0.64722776 1.8893241e-38
2.0632236 0.5 0.66941744 1.8893241e-38
2.1243048 0.5 0.63551092 1.8893241e-38
2.237745 0.5 0.65926743 1.8893241e-38
2.3467908 0.5 0.65368682 1.8893241e-38
2.4453492 0.5 0.64766949 1.8893241e-38
2.5485628 0.5 0.64033812 1.8893241e-38
2.6498108 0.5 0.65150195 1.8893241e-38
2.7708972 0.5 0.6577757 1.8893241e-38
2.8677669 0.5 0.65464032 1.8893241e-38
2.9353051 0.5 0.66762829 1.8893241e-38
0.5 0.65502489 0.63400841 1.8893241e-38
0.5 0.74184209 0.63416052 1.8893241e-38
0.5 0.85027385 0.64574951 1.8893241e-38
0.5 0.97236127 0.65551907 1.8893241e-38
0.5 1.0049882 0.66892725 1.8893241e-38
0.5 1.1537917 0.6511699 1.8893241e-38
0.5 1.242584 0.62692523 1.8893241e-38
0.5 1.3331299 0.63531512 1.8893241e-38
0.5 1.4384015 0.65474832 1.8893241e-38
0.5 1.5669571 0.67295951 1.8893241e-38
0.5 1.6618227 0.67321551 1.8893241e-38
0.5 1.7576452 0.66249949 1.8893241e-38
0.5 1.8423889 0.64318353 1.8893241e-38
0.5 1.9270922 0.63875133 1.8893241e-38
0.5 2.0435603 0.63232183 1.8893241e-38
0.5 2.1652291 0.66658777 1.8893241e-38
0.5 2.2363138 0.64863425 1.8893241e-38
0.5 2.3577011 0.6525389 1.8893241e-38
0.5 2.459228 0.63968045 1.8893241e-38
0.5 2.5715253 0.63374537 1.8893241e-38
0.5 2.6633906 0.65770423 1.8893241e-38
0.5 2.7590642 0.64414525 1.8893241e-38
0.5 2.8646674 0.64907056 1.8893241e-38
0.5 2.9337511 0.6539343 1.8893241e-38
0.51874584 0.52592617 0.75413638 1.8893241e-38
0.68532634 0.5 0.74520117 1.8893241e-38
0.73722887 0.5 0.75642669 1.8893241e-38
0.8547079 0.5 0.75643182 1.8893241e-38
0.95969588 0.5 0.76312685 1.8893241e-38
1.0637326 0.5 0.77957946 1.8893241e-38
1.1531858 0.5 0.75125843 1.8893241e-38
1.2212367 0.5 0.7385872 1.8893241e-38
1.3512522 0.5 0.72315848 1.8893241e-38
1.4607133 0.5 0.76998645 1.8893241e-38
1.5540543 0.5 0.74339962 1.8893241e-38
1.6504846 0.5 0.74411201 1.8893241e-38
1.7481138 0.5 0.75455099 1.8893241e-38
1.8491791 0.5 0.75143647 1.8893241e-38
1.9576348 0.5 0.74345362 1.8893241e-38
2.0361426 0.5 0.74537665 1.8893241e-38
2.1528232 0.5 0.73902261 1.8893241e-38
2.261497 0.5 0.76204413 1.8893241e-38
2.3481903 0.5 0.75910121 1.8893241e-38
2.448669 0.5 0.73366004 1.8893241e-38
2.5268333 0.5 0.75315434 1.8893241e-38
2.6541274 0.5 0.75394112 1.8893241e-38
2.7498717 0.5 0.7306565 1.8893241e-38
2.8394351 0.5 0.73886204 1.8893241e-38
2.9420683 0.5 0.75318271 1.8893241e-38
0.5 0.62740016 0.75064558 1.8893241e-38
0.5 0.74859065 0.77432364 1.8893241e-38
0.5 0.86213076 0.74745733 1.8893241e-38
0.5 0.95275348 0.74855751 1.8893241e-38
0.5 1.0448669 0.7379362 1.8893241e-38
0.5 1.1131536 0.7517513 1.8893241e-38
0.5 1.2646266 0.76074421 1.8893241e-38
0.5 1.357778 0.74080086 1.8893241e-38
0.5 1.4348892 0.74560499 1.8893241e-38
0.5 1.5528636 0.74446082 1.8893241e-38
0.5 1.6748728 0.76998448 1.8893241e-38
0.5 1.7520276 0.74606973 1.8893241e-38
0.5 1.8463033 0.75457078 1.8893241e-38
0.5 1.9640471 0.74880838 1.8893241e-38
0.5 2.0523627 0.75248295 1.8893241e-38
0.5 2.1541858 0.75939858 1.8893241e-38
0.5 2.262527 0.76533645 1.8893241e-38
0.5 2.3526578 0.75163162 1.8893241e-38
0.5 2.4490552 0.75206184 1.8893241e-38
0.5 2.5656738 0.75646949 1.8893241e-38
0.5 2.6666927 0.75221896 1.8893241e-38
0.5 2.73298 0.77618265 1.8893241e-38
0.5 2.8464828 0.74041599 1.8893241e-38
0.5 2.9464786 0.73811603 1.8893241e-38
0.52448958 0.52817041 0.84364021 1.8893241e-38
0.64545321 0.5 0.84268838 1.8893241e-38
0.74435151 0.5 0.84542465 1.8893241e-38
0.81513643 0.5 0.83238751 1.8893241e-38
0.94558728 0.5 0.84319454 1.8893241e-38
1.0533454 0.5 0.85136384 1.8893241e-38
1.1389906 0.5 0.86247063 1.8893241e-38
1.2376395 0.5 0.85369605 1.8893241e-38
1.3606317 0.5 0.85689843 1.8893241e-38
1.4499407 0.5 0.85154378 1.8893241e-38
1.5490555 0.5 0.8405478 1.8893241e-38
1.6637602 0.5 0.84336454 1.8893241e-38
1.7322321 0.5 0.86624318 1.8893241e-38
1.8482486 0.5 0.84837705 1.8893241e-38
1.9613152 0.5 0.85069895 1.8893241e-38
2.0269167 0.5 0.85391408 1.8893241e-38
2.2443399 0.5 0.86016935 1.8893241e-38
2.3477147 0.5 0.82785648 1.8893241e-38
2.4468472 0.5 0.84458894 1.8893241e-38
2.5484545 0.5 0.83730739 1.8893241e-38
2.6380253 0.5 0.84711617 1.8893241e-38
2.7380137 0.5 0.84391701 1.8893241e-38
2.8492649 0.5 0.85687602 1.8893241e-38
2.946949 0.5 0.85409534 1.8893241e-38
0.5 0.64621651 0.8380596 1.8893241e-38
0.5 0.75091761 0.83667803 1.8893241e-38
0.5 0.84885317 0.84437001 1.8893241e-38
0.5 0.94531524 0.85428876 1.8893241e-38
0.5 1.0567827 0.85735118 1.8893241e-38
0.5 1.1511217 0.83270109 1.8893241e-38
0.5 1.2384598 0.857939 1.8893241e-38
0.5 1.359267 0.85499501 1.8893241e-38
0.5 1.4465694 0.84672695 1.8893241e-38
0.5 1.551861 0.84764153 1.8893241e-38
0.5 1.6553352 0.85795945 1.8893241e-38
0.5 1.7411022 0.84743375 1.8893241e-38
0.5 1.8366296 0.86832798 1.8893241e-38
0.5 1.9483654 0.84082323 1.8893241e-38
0.5 2.0167522 0.88201636 1.8893241e-38
0.5 2.1346245 0.84851474 1.8893241e-38
0.5 2.2445967 0.83250511 1.8893241e-38
0.5 2.3526738 0.85085958 1.8893241e-38
0.5 2.4344795 0.8665545 1.8893241e-38
0.5 2.5776501 0.87002707 1.8893241e-38
0.5 2.6330073 0.84542173 1.8893241e-38
0.5 2.7562318 0.8363207 1.8893241e-38
0.5 2.861958 0.84306037 1.8893241e-38
0.5 2.9547734 0.85060561 1.8893241e-38
0.51998562 0.52555794 0.96685702 1.8893241e-38
0.66063863 0.5 0.95026892 1.8893241e-38
0.75641412 0.5 0.93419302 1.8893241e-38
0.85146487 0.5 0.97124588 1.8893241e-38
0.94858468 0.5 0.96489102 1.8893241e-38
1.0261369 0.5 0.94889605 1.8893241e-38
1.1527568 0.5 0.94807386 1.8893241e-38
1.2408171 0.5 0.95638341 1.8893241e-38
1.3456326 0.5 0.96957594 1.8893241e-38
1.4593669 0.5 0.95094591 1.8893241e-38
1.5571454 0.5 0.94807506 1.8893241e-38
1.659644 0.5 0.9675951 1.8893241e-38
1.7653677 0.5 0.95363182 1.8893241e-38
1.8452318 0.5 0.94293404 1.8893241e-38
1.973459 0.5 0.96010506 1.8893241e-38
2.0458376 0.5 0.93950957 1.8893241e-38
2.1517799 0.5 0.9217723 1.8893241e-38
2.2404554 0.5 0.95581341 1.8893241e-38
2.3507314 0.5 0.94905728 1.8893241e-38
2.4697635 0.5 0.94394475 1.8893241e-38
2.550436 0.5 0.95482093 1.8893241e-38
2.6542809 0.5 0.93613338 1.8893241e-38
2.7785296 0.5 0.95623577 1.8893241e-38
2.8403916 0.5 0.96875131 1.8893241e-38
2.9466825 0.5 0.95188737 1.8893241e-38
0.5 0.65606487 0.95706981 1.8893241e-38
0.5 0.77205902 0.94913888 1.8893241e-38
0.5 0.85899961 0.95103788 1.8893241e-38
0.5 0.93456495 0.94470882 1.8893241e-38
0.5 1.046178 0.94007343 1.8893241e-38
0.5 1.1579825 0.93918139 1.8893241e-38
0.5 1.2757853 0.94143647 1.8893241e-38
0.5 1.3678544 0.94078118 1.8893241e-38
0.5 1.4407345 0.949 1.8893241e-38
0.5 1.5483845 0.96015865 1.8893241e-38
0.5 1.6601164 0.95979637 1.8893241e-38
0.5 1.7467368 0.96126765 1.8893241e-38
0.5 1.8585129 0.92213315 1.8893241e-38
0.5 1.9495827 0.9510473 1.8893241e-38
0.5 2.038373 0.96462142 1.8893241e-38
0.5 2.1455834 0.93311715 1.8893241e-38
0.5 2.2491558 0.94439352 1.8893241e-38
0.5 2.3257835 0.93956184 1.8893241e-38
0.5 2.440836 0.95171499 1.8893241e-38
0.5 2.5385354 0.95194596 1.8893241e-38
0.5 2.6529887 0.94349039 1.8893241e-38
0.5 2.7622535 0.96566486 1.8893241e-38
0.5 2.8624029 0.95552361 1.8893241e-38
0.5 2.958432 0.95633727 1.8893241e-38
0.53188312 0.51872045 1.0611091 1.8893241e-38
0.63513911 0.5 1.0563571 1.8893241e-38
0.76235831 0.5 1.0661685 1.8893241e-38
0.8488664 0.5 1.0588421 1.8893241e-38
0.95339167 0.5 1.0602431 1.8893241e-38
1.0403923 0.5 1.0522379 1.8893241e-38
1.1410832 0.5 1.0597614 1.8893241e-38
1.268008 0.5 1.0555915 1.8893241e-38
1.3451129 0.5 1.0321313 1.8893241e-38
1.4343735 0.5 1.0607083 1.8893241e-38
1.5465523 0.5 1.0554101 1.8893241e-38
1.632519 0.5 1.0776298 1.8893241e-38
1.7475129 0.5 1.0551859 1.8893241e-38
1.863606 0.5 1.0438192 1.8893241e-38
1.9522957 0.5 1.0495007 1.8893241e-38
2.044966 0.5 1.0511935 1.8893241e-38
2.1537671 0.5 1.0485995 1.8893241e-38
2.2363849 0.5 1.0522822 1.8893241e-38
2.3512983 0.5 1.0529045 1.8893241e-38
2.4342294 0.5 1.0814512 1.8893241e-38
2.52631 0.5 1.0405053 1.8893241e-38
2.6574583 0.5 1.0495951 1.8893241e-38
2.7750499 0.5 1.0776682 1.8893241e-38
2.8348596 0.5 1.0578092 1.8893241e-38
2.9500506 0.5 1.0540081 1.8893241e-38
0.5 0.67497301 1.0526055 1.8893241e-38
0.5 0.76904976 1.0358164 1.8893241e-38
0.5 0.845038 1.0532023 1.8893241e-38
0.5 0.95065278 1.0511745 1.8893241e-38
0.5 1.0675199 1.0441774 1.8893241e-38
0.5 1.1593738 1.0491066 1.8893241e-38
0.5 1.2641704 1.0555602 1.8893241e-38
0.5 1.3478868 1.0560753 1.8893241e-38
0.5 1.4502834 1.0486072 1.8893241e-38
0.5 1.5243074 1.0533328 1.8893241e-38
0.5 1.6639363 1.0521836 1.8893241e-38
0.5 1.7546253 1.0457731 1.8893241e-38
0.5 1.8618597 1.0628505 1.8893241e-38
0.5 1.9541341 1.0685276 1.8893241e-38
0.5 2.0530748 1.0369768 1.8893241e-38
0.5 2.1579092 1.049509 1.8893241e-38
0.5 2.2463243 1.0518137 1.8893241e-38
0.5 2.3505826 1.0565507 1.8893241e-38
0.5 2.4462819 1.0516551 1.8893241e-38
0.5 2.5507135 1.0639563 1.8893241e-38
0.5 2.6459856 1.06296 1.8893241e-38
0.5 2.7192461 1.0406106 1.8893241e-38
0.5 2.8687687 1.0604435 1.8893241e-38
0.5 2.9339719 1.0540588 1.8893241e-38
0.52340168 0.51142114 1.1357951 1.8893241e-38
0.65676188 0.5 1.1530901 1.8893241e-38
0.75598425 0.5 1.1428616 1.8893241e-38
0.84737605 0.5 1.1458904 1.8893241e-38
0.94996738 0.5 1.155314 1.8893241e-38
1.0311223 0.5 1.1348499 1.8893241e-38
1.1535411 0.5 1.139169 1.8893241e-38
1.2379686 0.5 1.1501095 1.8893241e-38
1.3535669 0.5 1.1678272 1.8893241e-38
1.4271965 0.5 1.1479609 1.8893241e-38
1.5490243 0.5 1.1802909 1.8893241e-38
1.6479908 0.5 1.1597303 1.8893241e-38
1.7688503 0.5 1.1458302 1.8893241e-38
1.833379 0.5 1.1334692 1.8893241e-38
1.9544851 0.5 1.1545089 1.8893241e-38
2.0470471 0.5 1.1490037 1.8893241e-38
2.1530731 0.5 1.162492 1.8893241e-38
2.2606158 0.5 1.1555359 1.8893241e-38
2.3538156 0.5 1.1685131 1.8893241e-38
2.4381073 0.5 1.1448306 1.8893241e-38
2.5656989 0.5 1.1282619 1.8893241e-38
2.6476021 0.5 1.1393749 1.8893241e-38
2.7336614 0.5 1.1445274 1.8893241e-38
2.8626294 0.5 1.1363252 1.8893241e-38
2.9469373 0.5 1.1615596 1.8893241e-38
0.5 0.66106272 1.1457396 1.8893241e-38
0.5 0.75719827 1.1379377 1.8893241e-38
0.5 0.86200303 1.1641616 1.8893241e-38
0.5 0.94397664 1.147524 1.8893241e-38
0.5 1.0418484 1.1510688 1.8893241e-38
0.5 1.1594887 1.1484301 1.8893241e-38
0.5 1.285964 1.1727357 1.8893241e-38
0.5 1.3621832 1.1322935 1.8893241e-38
0.5 1.4645435 1.1613938 1.8893241e-38
0.5 1.5513233 1.14793 1.8893241e-38
0.5 1.6412865 1.167168 1.8893241e-38
0.5 1.7278736 1.1542642 1.8893241e-38
0.5 1.8334575 1.1515193 1.8893241e-38
0.5 1.9388129 1.1507343 1.8893241e-38
0.5 2.0479286 1.1622344 1.8893241e-38
0.5 2.1671879 1.1496226 1.8893241e-38
0.5 2.2550619 1.149969 1.8893241e-38
0.5 2.3451931 1.1469151 1.8893241e-38
0.5 2.447315 1.1533113 1.8893241e-38
0.5 2.5593312 1.1377136 1.8893241e-38
0.5 2.65838 1.1519206 1.8893241e-38
0.5 2.7467594 1.1634209 1.8893241e-38
0.5 2.8639958 1.1445128 1.8893241e-38
0.5 2.9395764 1.1457824 1.8893241e-38
0.52532077 0.52762848 1.250459 1.8893241e-38
0.66390127 0.5 1.2574283 1.8893241e-38
0.73350465 0.5 1.2555648 1.8893241e-38
0.82607216 0.5 1.2748526 1.8893241e-38
0.9537189 0.5 1.2505423 1.8893241e-38
1.0478495 0.5 1.2596565 1.8893241e-38
1.1430321 0.5 1.2367581 1.8893241e-38
1.2410939 0.5 1.2399794 1.8893241e-38
1.3624666 0.5 1.2196301 1.8893241e-38
1.4379377 0.5 1.2563921 1.8893241e-38
1.5511277 0.5 1.2477019 1.8893241e-38
1.6521759 0.5 1.2632973 1.8893241e-38
1.7647097 0.5 1.2681284 1.8893241e-38
1.8732017 0.5 1.2421856 1.8893241e-38
1.9417425 0.5 1.2549411 1.8893241e-38
2.040324 0.5 1.2456931 1.8893241e-38
2.1350145 0.5 1.2484659 1.8893241e-38
2.2592444 0.5 1.2661983 1.8893241e-38
2.3556185 0.5 1.2472638 1.8893241e-38
2.4503446 0.5 1.249707 1.8893241e-38
2.5306289 0.5 1.254747 1.8893241e-38
2.653091 0.5 1.2455703 1.8893241e-38
2.7343802 0.5 1.246992 1.8893241e-38
2.8436608 0.5 1.2769006 1.8893241e-38
2.9443178 0.5 1.2550541 1.8893241e-38
0.5 0.66343647 1.236743 1.8893241e-38
0.5 0.76415813 1.257642 1.8893241e-38
0.5 0.85072154 1.255558 1.8893241e-38
0.5 0.93574589 1.2645487 1.8893241e-38
0.5 1.0713857 1.2452185 1.8893241e-38
0.5 1.1448525 1.2402951 1.8893241e-38
0.5 1.2704169 1.2477036 1.8893241e-38
0.5 1.3564545 1.2462115 1.8893241e-38
0.5 1.4310225 1.2475741 1.8893241e-38
0.5 1.5530885 1.2638766 1.8893241e-38
0.5 1.6554945 1.2438905 1.8893241e-38
0.5 1.7712948 1.2559346 1.8893241e-38
0.5 1.8529571 1.241178 1.8893241e-38
0.5 1.933858 1.2438802 1.8893241e-38
0.5 2.0661719 1.2450972 1.8893241e-38
0.5 2.1588125 1.2347296 1.8893241e-38
0.5 2.2239935 1.25046 1.8893241e-38
0.5 2.3434794 1.2420113 1.8893241e-38
0.5 2.4535882 1.2635427 1.8893241e-38
0.5 2.5629098 1.2731982 1.8893241e-38
0.5 2.6727295 1.2382045 1.8893241e-38
0.5 2.7557673 1.2517695 1.8893241e-38
0.5 2.8309145 1.2413943 1.8893241e-38
0.5 2.9468153 1.2689295 1.8893241e-38
0.53175777 0.52096057 1.3394034 1.8893241e-38
0.66317666 0.5 1.3485396 1.8893241e-38
0.76258034 0.5 1.3499008 1.8893241e-38
0.84492493 0.5 1.3273829 1.8893241e-38
0.96267641 0.5 1.3438046 1.8893241e-38
1.0457364 0.5 1.3481994 1.8893241e-38
1.1654524 0.5 1.3492365 1.8893241e-38
1.2503102 0.5 1.3309472 1.8893241e-38
1.3592522 0.5 1.3373979 1.8893241e-38
1.4457705 0.5 1.3518304 1.8893241e-38
1.564854 0.5 1.36494 1.8893241e-38
1.665692 0.5 1.3306227 1.8893241e-38
1.7418308 0.5 1.3447177 1.8893241e-38
1.8551109 0.5 1.3531075 1.8893241e-38
1.9630282 0.5 1.3281233 1.8893241e-38
2.0445611 0.5 1.3423198 1.8893241e-38
2.1643617 0.5 1.335609 1.8893241e-38
2.2584646 0.5 1.3427873 1.8893241e-38
2.3683906 0.5 1.3533735 1.8893241e-38
2.4479213 0.5 1.3511821 1.8893241e-38
2.5594401 0.5 1.3579254 1.8893241e-38
2.6444411 0.5 1.3472799 1.8893241e-38
2.7560775 0.5 1.3558128 1.8893241e-38
2.866066 0.5 1.3509269 1.8893241e-38
2.9539814 0.5 1.3586316 1.8893241e-38
0.5 0.65415239 1.3691343 1.8893241e-38
0.5 0.75929314 1.3478841 1.8893241e-38
0.5 0.85844719 1.3362167 1.8893241e-38
0.5 0.94933021 1.3531975 1.8893241e-38
0.5 1.0473137 1.3390754 1.8893241e-38
0.5 1.1465584 1.3445401 1.8893241e-38
0.5 1.2579622 1.3553911 1.8893241e-38
0.5 1.3354741 1.353569 1.8893241e-38
0.5 1.4426236 1.3640853 1.8893241e-38
0.5 1.5469643 1.3595539 1.8893241e-38
0.5 1.6524264 1.3513347 1.8893241e-38
0.5 1.7444725 1.3371023 1.8893241e-38
0.5 1.8754683 1.3538634 1.8893241e-38
0.5 1.940485 1.3594952 1.8893241e-38
0.5 2.0456579 1.3297626 1.8893241e-38
0.5 2.1480076 1.3667234 1.8893241e-38
0.5 2.2344666 1.3359784 1.8893241e-38
0.5 2.3412971 1.3750769 1.8893241e-38
0.5 2.4488442 1.3633314 1.8893241e-38
0.5 2.5482905 1.3327248 1.8893241e-38
0.5 2.6379926 1.3523378 1.8893241e-38
0.5 2.7504907 1.34095 1.8893241e-38
0.5 2.8620353 1.3559973 1.8893241e-38
0.5 2.9676316 1.3632585 1.8893241e-38
0.51980126 0.53479713 1.4650416 1.8893241e-38
0.66328609 0.5 1.4574018 1.8893241e-38
0.75322706 0.5 1.4710813 1.8893241e-38
0.86014289 0.5 1.4575958 1.8893241e-38
0.9422912 0.5 1.4496903 1.8893241e-38
1.0465423 0.5 1.4460994 1.8893241e-38
1.1355346 0.5 1.4449316 1.8893241e-38
1.257111 0.5 1.446735 1.8893241e-38
1.3534508 0.5 1.4554538 1.8893241e-38
1.4592617 0.5 1.4404955 1.8893241e-38
1.573679 0.5 1.4510809 1.8893241e-38
1.6377319 0.5 1.4436336 1.8893241e-38
1.7455894 0.5 1.455608 1.8893241e-38
1.8485602 0.5 1.4617757 1.8893241e-38
1.9676685 0.5 1.449789 1.8893241e-38
2.0393178 0.5 1.4492441 1.8893241e-38
2.1606834 0.5 1.462068 1.8893241e-38
2.2554698 0.5 1.461207 1.8893241e-38
2.3526533 0.5 1.4462515 1.8893241e-38
2.4539182 0.5 1.4416454 1.8893241e-38
2.5318253 0.5 1.4554931 1.8893241e-38
2.6489739 0.5 1.4266788 1.8893241e-38
2.7480781 0.5 1.453997 1.8893241e-38
2.847878 0.5 1.4422872 1.8893241e-38
2.9515586 0.5 1.4603074 1.8893241e-38
0.5 0.6478129 1.4668541 1.8893241e-38
0.5 0.76643938 1.458159 1.8893241e-38
0.5 0.84562904 1.4470096 1.8893241e-38
0.5 0.94169205 1.4514529 1.8893241e-38
0.5 1.0563375 1.4537388 1.8893241e-38
0.5 1.1571482 1.4505847 1.8893241e-38
0.5 1.2442709 1.4582018 1.8893241e-38
0.5 1.3648345 1.4636451 1.8893241e-38
0.5 1.4234899 1.4701443 1.8893241e-38
0.5 1.5421917 1.4378932 1.8893241e-38
0.5 1.6522217 1.4617003 1.8893241e-38
0.5 1.7772411 1.4567752 1.8893241e-38
0.5 1.8470271 1.4641895 1.8893241e-38
0.5 1.952644 1.427604 1.8893241e-38
0.5 2.0670443 1.4377289 1.8893241e-38
0.5 2.1361156 1.4367034 1.8893241e-38
0.5 2.2523849 1.4634908 1.8893241e-38
0.5 2.3370597 1.4285491 1.8893241e-38
0.5 2.4561357 1.461803 1.8893241e-38
0.5 2.5527716 1.4380864 1.8893241e-38
0.5 2.6757331 1.4287844 1.8893241e-38
0.5 2.7675261 1.4476852 1.8893241e-38
0.5 2.8427987 1.4571267 1.8893241e-38
0.5 2.9295609 1.4319812 1.8893241e-38
0.5283044 0.52541542 1.5522686 1.8893241e-38
0.65162164 0.5 1.5548059 1.8893241e-38
0.73534173 0.5 1.5488143 1.8893241e-38
0.8551895 0.5 1.5504106 1.8893241e-38
0.94083005 0.5 1.5414511 1.8893241e-38
1.0702589 0.5 1.5536392 1.8893241e-38
1.1510345 0.5 1.5319881 1.8893241e-38
1.233301 0.5 1.5346926 1.8893241e-38
1.3532532 0.5 1.5457534 1.8893241e-38
1.4518733 0.5 1.5481633 1.8893241e-38
1.560112 0.5 1.5589925 1.8893241e-38
1.6312721 0.5 1.5489924 1.8893241e-38
1.7281029 0.5 1.5562713 1.8893241e-38
1.85265 0.5 1.5664216 1.8893241e-38
1.9626452 0.5 1.5358711 1.8893241e-38
2.0471733 0.5 1.5535967 1.8893241e-38
2.1402938 0.5 1.5617456 1.8893241e-38
2.2536135 0.5 1.567181 1.8893241e-38
2.3362365 0.5 1.5450631 1.8893241e-38
2.45275 0.5 1.5500683 1.8893241e-38
2.562824 0.5 1.5514525 1.8893241e-38
2.6163604 0.5 1.5250448 1.8893241e-38
2.7318447 0.5 1.5538663 1.8893241e-38
2.8673787 0.5 1.5472673 1.8893241e-38
2.9380329 0.5 1.5471307 1.8893241e-38
0.5 0.61290294 1.5625811 1.8893241e-38
0.5 0.78206992 1.5743632 1.8893241e-38
0.5 0.85490257 1.5464811 1.8893241e-38
0.5 0.9681136 1.546615 1.8893241e-38
0.5 1.0574967 1.5505327 1.8893241e-38
0.5 1.1553622 1.5538698 1.8893241e-38
0.5 1.2374423 1.5583876 1.8893241e-38
0.5 1.3549929 1.5485096 1.8893241e-38
0.5 1.4476854 1.5384367 1.8893241e-38
0.5 1.532087 1.552385 1.8893241e-38
0.5 1.6385616 1.5418895 1.8893241e-38
0.5 1.7325836 1.5472991 1.8893241e-38
0.5 1.8455962 1.5507674 1.8893241e-38
0.5 1.9587175 1.522885 1.8893241e-38
0.5 2.0323009 1.5448771 1.8893241e-38
0.5 2.150367 1.5574745 1.8893241e-38
0.5 2.2547145 1.5318912 1.8893241e-38
0.5 2.3398733 1.5582221 1.8893241e-38
0.5 2.4625638 1.5577183 1.8893241e-38
0.5 2.5321434 1.5504982 1.8893241e-38
0.5 2.6334081 1.5646166 1.8893241e-38
0.5 2.7587745 1.5432562 1.8893241e-38
0.5 2.8473706 1.5305053 1.8893241e-38
0.5 2.9418535 1.5452356 1.8893241e-38
0.51070076 0.52762336 1.6544813 1.8893241e-38
0.66050476 0.5 1.6412692 1.8893241e-38
0.75236762 0.5 1.6345192 1.8893241e-38
0.85597181 0.5 1.6449524 1.8893241e-38
0.94819039 0.5 1.6572342 1.8893241e-38
1.0624421 0.5 1.6630299 1.8893241e-38
1.1446068 0.5 1.663137 1.8893241e-38
1.245865 0.5 1.6467077 1.8893241e-38
1.3585507 0.5 1.6546412 1.8893241e-38
1.4347206 0.5 1.6358485 1.8893241e-38
1.5437659 0.5 1.6439662 1.8893241e-38
1.6389958 0.5 1.6460592 1.8893241e-38
1.7478414 0.5 1.6371933 1.8893241e-38
1.8292365 0.5 1.6590272 1.8893241e-38
1.9396952 0.5 1.6685678 1.8893241e-38
2.0472844 0.5 1.6557962 1.8893241e-38
2.1407273 0.5 1.6404659 1.8893241e-38
2.2498653 0.5 1.6574501 1.8893241e-38
2.3572292 0.5 1.6553015 1.8893241e-38
2.4274669 0.5 1.6460009 1.8893241e-38
2.5359974 0.5 1.6562736 1.8893241e-38
2.6315849 0.5 1.6724437 1.8893241e-38
2.753547 0.5 1.6329986 1.8893241e-38
2.8330436 0.5 1.6494346 1.8893241e-38
2.9351361 0.5 1.6554023 1.8893241e-38
0.5 0.67446327 1.6560777 1.8893241e-38
0.5 0.74921036 1.6476492 1.8893241e-38
0.5 0.83999366 1.6532189 1.8893241e-38
0.5 0.94697529 1.6456624 1.8893241e-38
0.5 1.06821 1.6398541 1.8893241e-38
0.5 1.1673851 1.6532731 1.8893241e-38
0.5 1.2468846 1.657187 1.8893241e-38
0.5 1.3448563 1.6600202 1.8893241e-38
0.5 1.4349461 1.6590744 1.8893241e-38
0.5 1.5378925 1.6518563 1.8893241e-38
0.5 1.6484852 1.6573079 1.8893241e-38
0.5 1.7377502 1.6860089 1.8893241e-38
0.5 1.850042 1.6607792 1.8893241e-38
0.5 1.9326572 1.6547391 1.8893241e-38
0.5 2.0508342 1.6535962 1.8893241e-38
0.5 2.1514318 1.6308533 1.8893241e-38
0.5 2.2792811 1.6488904 1.8893241e-38
0.5 2.3920777 1.6601715 1.8893241e-38
0.5 2.4369845 1.6437681 1.8893241e-38
0.5 2.5382838 1.6499498 1.8893241e-38
0.5 2.6930537 1.6843973 1.8893241e-38
0.5 2.7366736 1.6508013 1.8893241e-38
0.5 2.8552988 1.6559687 1.8893241e-38
0.5 2.9360871 1.6627388 1.8893241e-38
0.52724802 0.53021884 1.7508057 1.8893241e-38
0.66171175 0.5 1.7601932 1.8893241e-38
0.77993459 0.5 1.7435014 1.8893241e-38
0.86366045 0.5 1.7360224 1.8893241e-38
0.93926537 0.5 1.7435719 1.8893241e-38
1.0820186 0.5 1.7462877 1.8893241e-38
1.1545962 0.5 1.7389438 1.8893241e-38
1.2288897 0.5 1.7582448 1.8893241e-38
1.3632922 0.5 1.7298566 1.8893241e-38
1.4614147 0.5 1.7431563 1.8893241e-38
1.5539702 0.5 1.7505347 1.8893241e-38
1.6294533 0.5 1.7452792 1.8893241e-38
1.748476 0.5 1.7358559 1.8893241e-38
1.8416084 0.5 1.7479055 1.8893241e-38
1.956081 0.5 1.7478483 1.8893241e-38
2.0518467 0.5 1.7542 1.8893241e-38
2.1485269 0.5 1.7676141 1.8893241e-38
2.2477753 0.5 1.7668161 1.8893241e-38
2.3309097 0.5 1.7528849 1.8893241e-38
2.4391356 0.5 1.741663 1.8893241e-38
2.527915 0.5 1.7565253 1.8893241e-38
2.6765401 0.5 1.7429461 1.8893241e-38
2.7627187 0.5 1.7411712 1.8893241e-38
2.8561544 0.5 1.7460765 1.8893241e-38
2.9506478 0.5 1.7751217 1.8893241e-38
0.5 0.62835765 1.7450672 1.8893241e-38
0.5 0.7504797 1.7489196 1.8893241e-38
0.5 0.84435201 1.7407666 1.8893241e-38
0.5 0.93264651 1.7521735 1.8893241e-38
0.5 1.0731918 1.7516378 1.8893241e-38
0.5 1.1465529 1.723259 1.8893241e-38
0.5 1.2601278 1.7638324 1.8893241e-38
0.5 1.3335594 1.7320369 1.8893241e-38
0.5 1.4491835 1.7471542 1.8893241e-38
0.5 1.5446105 1.7440827 1.8893241e-38
0.5 1.6431204 1.7439609 1.8893241e-38
0.5 1.7607286 1.7480462 1.8893241e-38
0.5 1.852353 1.7481418 1.8893241e-38
0.5 1.953015 1.7319241 1.8893241e-38
0.5 2.0442617 1.7418699 1.8893241e-38
0.5 2.144356 1.7311306 1.8893241e-38
0.5 2.2644787 1.7426585 1.8893241e-38
0.5 2.3632934 1.7468736 1.8893241e-38
0.5 2.4647343 1.7375904 1.8893241e-38
0.5 2.5489166 1.7429776 1.8893241e-38
0.5 2.6381283 1.7330248 1.8893241e-38
0.5 2.763952 1.7448001 1.8893241e-38
0.5 2.8684785 1.7466906 1.8893241e-38
0.5 2.9252903 1.7313637 1.8893241e-38
0.51875347 0.52676207 1.8473554 1.8893241e-38
0.64936721 0.5 1.8381755 1.8893241e-38
0.74660885 0.5 1.8553302 1.8893241e-38
0.83979833 0.5 1.8476892 1.8893241e-38
0.95548886 0.5 1.8527148 1.8893241e-38
1.0507411 0.5 1.8499038 1.8893241e-38
1.161294 0.5 1.8610083 1.8893241e-38
1.2570356 0.5 1.8487345 1.8893241e-38
1.3425512 0.5 1.8673795 1.8893241e-38
1.4406995 0.5 1.8572558 1.8893241e-38
1.5412624 0.5 1.8679967 1.8893241e-38
1.6501786 0.5 1.8662971 1.8893241e-38
1.754758 0.5 1.8493063 1.8893241e-38
1.8369505 0.5 1.8564745 1.8893241e-38
1.9555969 0.5 1.8498856 1.8893241e-38
2.033639 0.5 1.849268 1.8893241e-38
2.1528931 0.5 1.8541989 1.8893241e-38
2.2635245 0.5 1.8729051 1.8893241e-38
2.3593173 0.5 1.8655236 1.8893241e-38
2.4413254 0.5 1.8423985 1.8893241e-38
2.550401 0.5 1.8269123 1.8893241e-38
2.6556478 0.5 1.8567629 1.8893241e-38
2.7407815 0.5 1.8544197 1.8893241e-38
2.8512955 0.5 1.8495319 1.8893241e-38
2.960223 0.5 1.8408933 1.8893241e-38
0.5 0.64355838 1.8434552 1.8893241e-38
0.5 0.75020564 1.8481642 1.8893241e-38
0.5 0.85419595 1.8619026 1.8893241e-38
0.5 0.94001675 1.8354131 1.8893241e-38
0.5 1.0500571 1.8467737 1.8893241e-38
0.5 1.1125692 1.859138 1.8893241e-38
0.5 1.2585821 1.8515483 1.8893241e-38
0.5 1.3450789 1.8584145 1.8893241e-38
0.5 1.4412535 1.8527931 1.8893241e-38
0.5 1.5471267 1.8605283 1.8893241e-38
0.5 1.6627564 1.8454157 1.8893241e-38
0.5 1.751856 1.8306376 1.8893241e-38
0.5 1.8621985 1.8575689 1.8893241e-38
0.5 1.9655151 1.8496033 1.8893241e-38
0.5 2.0491138 1.8660831 1.8893241e-38
0.5 2.1660974 1.8252202 1.8893241e-38
0.5 2.2549438 1.8469092 1.8893241e-38
0.5 2.3372617 1.8562664 1.8893241e-38
0.5 2.4579184 1.8384302 1.8893241e-38
0.5 2.5500314 1.849357 1.8893241e-38
0.5 2.6523657 1.8211606 1.8893241e-38
0.5 2.7668386 1.8645691 1.8893241e-38
0.5 2.8343959 1.8558029 1.8893241e-38
0.5 2.963335 1.8359283 1.8893241e-38
0.5238564 0.5206688 1.9485816 1.8893241e-38
0.66122204 0.5 1.9366863 1.8893241e-38
0.74921185 0.5 1.9390529 1.8893241e-38
0.82182002 0.5 1.939764 1.8893241e-38
0.96088141 0.5 1.9560883 1.8893241e-38
1.048315 0.5 1.9668176 1.8893241e-38
1.1319271 0.5 1.9585552 1.8893241e-38
1.2779492 0.5 1.9671057 1.8893241e-38
1.3403078 0.5 1.9611337 1.8893241e-38
1.4350367 0.5 1.9420911 1.8893241e-38
1.5755043 0.5 1.9504797 1.8893241e-38
1.6475644 0.5 1.9478374 1.8893241e-38
1.7522467 0.5 1.9458455 1.8893241e-38
1.8505175 0.5 1.9593859 1.8893241e-38
1.9517981 0.5 1.9379641 1.8893241e-38
2.0487027 0.5 1.9524891 1.8893241e-38
2.1693947 0.5 1.9679419 1.8893241e-38
2.2485089 0.5 1.9481937 1.8893241e-38
2.3580887 0.5 1.9433559 1.8893241e-38
2.4455082 0.5 1.9413965 1.8893241e-38
2.5395477 0.5 1.9587547 1.8893241e-38
2.6579227 0.5 1.9602572 1.8893241e-38
2.7396443 0.5 1.9432615 1.8893241e-38
2.8572078 0.5 1.9497534 1.8893241e-38
2.9278448 0.5 1.930846 1.8893241e-38
0.5 0.64968854 1.9420522 1.8893241e-38
0.5 0.75098681 1.9741321 1.8893241e-38
0.5 0.82316262 1.9553699 1.8893241e-38
0.5 0.9853459 1.9586475 1.8893241e-38
0.5 1.0527912 1.9478606 1.8893241e-38
0.5 1.1467564 1.9581358 1.8893241e-38
0.5 1.2471539 1.9448353 1.8893241e-38
0.5 1.3376784 1.9505488 1.8893241e-38
0.5 1.4855624 1.9439781 1.8893241e-38
0.5 1.5640967 1.9385501 1.8893241e-38
0.5 1.649469 1.9407474 1.8893241e-38
0.5 1.7630136 1.9229615 1.8893241e-38
0.5 1.855297 1.9394032 1.8893241e-38
0.5 1.9409416 1.9704179 1.8893241e-38
0.5 2.0389717 1.9308001 1.8893241e-38
0.5 2.1745014 1.9438097 1.8893241e-38
0.5 2.2512932 1.958307 1.8893241e-38
0.5 2.3586524 1.9372014 1.8893241e-38
0.5 2.4616251 1.9509194 1.8893241e-38
0.5 2.5740802 1.9563493 1.8893241e-38
0.5 2.6686866 1.9345748 1.8893241e-38
0.5 2.755197 1.9657513 1.8893241e-38
0.5 2.8419378 1.9620494 1.8893241e-38
0.5 2.9140615 1.9424099 1.8893241e-38
0.53367329 0.52440476 2.0652435 1.8893241e-38
0.67810214 0.5 2.0479565 1.8893241e-38
0.77629852 0.5 2.0523591 1.8893241e-38
0.85443312 0.5 2.0388649 1.8893241e-38
0.9544093 0.5 2.0570269 1.8893241e-38
1.051633 0.5 2.0577893 1.8893241e-38
1.1687548 0.5 2.0587509 1.8893241e-38
1.2525642 0.5 2.0508897 1.8893241e-38
1.3317858 0.5 2.0395701 1.8893241e-38
1.4352533 0.5 2.0485148 1.8893241e-38
1.5511538 0.5 2.0690815 1.8893241e-38
1.6410452 0.5 2.0571144 1.8893241e-38
1.7126634 0.5 2.0474744 1.8893241e-38
1.8475441 0.5 2.0552483 1.8893241e-38
1.9512098 0.5 2.0527358 1.8893241e-38
2.0448093 0.5 2.0788381 1.8893241e-38
2.1410503 0.5 2.0793207 1.8893241e-38
2.2374749 0.5 2.055783 1.8893241e-38
2.3488443 0.5 2.0597813 1.8893241e-38
2.4242902 0.5 2.0464611 1.8893241e-38
2.5554521 0.5 2.0393512 1.8893241e-38
2.6507771 0.5 2.0398548 1.8893241e-38
2.7323661 0.5 2.0467205 1.8893241e-38
2.8628793 0.5 2.082458 1.8893241e-38
2.9515553 0.5 2.0591702 1.8893241e-38
0.5 0.64291722 2.0639439 1.8893241e-38
0.5 0.77256685 2.0543542 1.8893241e-38
0.5 0.84641469 2.0469913 1.8893241e-38
0.5 0.96311921 2.0399761 1.8893241e-38
0.5 1.0582991 2.0456614 1.8893241e-38
0.5 1.1548235 2.0401208 1.8893241e-38
0.5 1.2604409 2.0478573 1.8893241e-38
0.5 1.3604388 2.0532804 1.8893241e-38
0.5 1.4437689 2.0356979 1.8893241e-38
0.5 1.5646957 2.0545466 1.8893241e-38
0.5 1.6361029 2.0754259 1.8893241e-38
0.5 1.7640917 2.0518866 1.8893241e-38
0.5 1.8372475 2.081115 1.8893241e-38
0.5 1.9233748 2.0188119 1.8893241e-38
0.5 2.0328419 2.0359552 1.8893241e-38
0.5 2.1466413 2.0547874 1.8893241e-38
0.5 2.2258151 2.0585933 1.8893241e-38
0.5 2.3426774 2.0421355 1.8893241e-38
0.5 2.4573004 2.0457547 1.8893241e-38
0.5 2.5276732 2.0267487 1.8893241e-38
0.5 2.6407709 2.0420439 1.8893241e-38
0.5 2.774863 2.0544021 1.8893241e-38
0.5 2.8646526 2.0728076 1.8893241e-38
0.5 2.9470885 2.0471222 1.8893241e-38
0.54337007 0.50970352 2.1541598 1.8893241e-38
0.63068444 0.5 2.1583369 1.8893241e-38
0.75496119 0.5 2.153331 1.8893241e-38
0.85683376 0.5 2.1579962 1.8893241e-38
0.95914775 0.5 2.1450851 1.8893241e-38
1.049033 0.5 2.1485844 1.8893241e-38
1.1448741 0.5 2.1499763 1.8893241e-38
1.2473539 0.5 2.1608465 1.8893241e-38
1.3563826 0.5 2.149483 1.8893241e-38
1.458303 0.5 2.1504648 1.8893241e-38
1.5481111 0.5 2.1413491 1.8893241e-38
1.644278 0.5 2.1614897 1.8893241e-38
1.7483665 0.5 2.1567123 1.8893241e-38
1.8554609 0.5 2.1422865 1.8893241e-38
1.9496949 0.5 2.1385877 1.8893241e-38
2.0704985 0.5 2.1623509 1.8893241e-38
2.1532772 0.5 2.1498961 1.8893241e-38
2.2347648 0.5 2.1546092 1.8893241e-38
2.3619888 0.5 2.1563501 1.8893241e-38
2.4520864 0.5 2.1512327 1.8893241e-38
2.5580945 0.5 2.1450417 1.8893241e-38
2.6600659 0.5 2.147491 1.8893241e-38
2.7423532 0.5 2.1572151 1.8893241e-38
2.8768339 0.5 2.1403263 1.8893241e-38
2.9475081 0.5 2.1555083 1.8893241e-38
0.5 0.64158118 2.1622097 1.8893241e-38
0.5 0.75333887 2.1081424 1.8893241e-38
0.5 0.85993677 2.1374593 1.8893241e-38
0.5 0.97239435 2.1503582 1.8893241e-38
0.5 1.0437425 2.1407542 1.8893241e-38
0.5 1.1182734 2.1428394 1.8893241e-38
0.5 1.2524465 2.14886 1.8893241e-38
0.5 1.341406 2.1405861 1.8893241e-38
0.5 1.4381987 2.1514239 1.8893241e-38
0.5 1.5354474 2.1394234 1.8893241e-38
0.5 1.6435194 2.1524441 1.8893241e-38
0.5 1.7331797 2.1326468 1.8893241e-38
0.5 1.8569598 2.1628115 1.8893241e-38
0.5 1.940189 2.1432099 1.8893241e-38
0.5 2.0524852 2.15446 1.8893241e-38
0.5 2.1460457 2.1822197 1.8893241e-38
0.5 2.2300925 2.1488721 1.8893241e-38
0.5 2.3487003 2.1385086 1.8893241e-38
