# .PCD v0.7 - Point Cloud Data file format
VERSION 0.7
FIELDS x y z
SIZE 4 4 4
TYPE F F F
COUNT 1 1 1
WIDTH 1921
HEIGHT 1
VIEWPOINT 0 0 0 1 0 0 0
POINTS 1921
DATA ascii
2.1446943 0.5 -2.7194097
1.8511729 0.5 -1.5448408
2.6568918 0.5 -0.084053509
0.6693368 0.5 -2.4350846
1.6402556 0.5 -1.8961718
2.7071364 0.5 -1.3051198
2.501641 0.5 1.4583595
0.6247071 0.5 -1.0827171
2.4150374 0.5 -2.9975669
1.2536777 0.5 -2.330107
0.76870412 0.5 -1.0611416
0.53487885 0.5 -1.5342131
1.8222462 0.5 -1.2179533
1.8922908 0.5 -0.10560942
1.4215279 0.5 -1.9196601
0.50167108 0.5 -1.9995497
1.5892708 0.5 0.64629787
2.8045704 0.5 -2.1103978
1.2068347 0.5 -2.8750303
1.2048072 0.5 1.2009913
0.64656287 0.5 -1.5005853
1.5308475 0.5 0.42158681
2.8093584 0.5 1.9308585
1.3243195 0.5 -0.64333433
1.4123274 0.5 -0.7241168
0.51204413 0.5 0.4534629
2.1783357 0.5 2.5847783
2.716917 0.5 1.8657421
1.975582 0.5 0.44475093
1.8714406 0.5 -2.9281731
2.8722668 0.5 -2.73404
1.6227545 0.5 -2.5817618
1.9740767 0.5 1.0161788
1.0831255 0.5 -1.1213449
1.6192374 0.5 2.3323445
2.2226682 0.5 0.54534948
2.6005538 0.5 0.06547939
2.2545357 0.5 -2.3510938
1.3093208 0.5 -2.4849098
1.6799467 0.5 -0.46449456
1.6200908 0.5 1.6199547
1.3984576 0.5 -1.0124319
1.0499257 0.5 -0.17613916
1.8967415 0.5 -0.32902989
2.8311956 0.5 -1.5767134
2.274816 0.5 -2.83885
2.729274 0.5 0.11498921
2.7838402 0.5 0.051428992
2.2430849 0.5 1.7585671
1.8138433 0.5 -2.111434
2.200922 0.5 -2.3110209
1.0508842 0.5 -0.85791302
1.8945775 0.5 -1.1736974
2.0413601 0.5 -2.1892323
2.3155518 0.5 1.5478523
1.1294795 0.5 -2.9736738
0.99518788 0.5 -0.92016017
1.0910122 0.5 -0.97208929
1.1338698 0.5 -1.9952034
2.5993423 0.5 -1.4342535
1.8588706 0.5 -2.2174125
1.2847214 0.5 1.0787207
1.9996489 0.5 0.59993976
2.97773 0.5 -1.7972486
2.3020904 0.5 2.7919922
1.0919672 0.5 -2.9165149
1.0700289 0.5 -2.7161665
1.8368291 0.5 -2.2564263
2.6469035 0.5 0.88838792
1.8095729 0.5 1.0969615
0.50478417 0.5 0.34664139
2.352628 0.5 0.25738242
0.75156188 0.5 1.8416164
1.2515117 0.5 2.2754827
2.7492189 0.5 -1.8880107
2.5758789 0.5 2.2559144
2.5063081 0.5 -0.21804343
2.2697802 0.5 -1.8893872
1.6501354 0.5 1.3213747
2.3904586 0.5 0.27257293
0.80459327 0.5 0.85441595
1.093461 0.5 2.3779247
1.3079464 0.5 2.7010119
2.8426268 0.5 -2.9973755
2.2388623 0.5 2.4562473
1.3122045 0.5 2.6254799
0.69213313 0.5 -0.47874704
0.87383604 0.5 2.936209
2.4483254 0.5 1.9699552
1.0494709 0.5 2.5751889
1.276615 0.5 -0.18616354
1.9886284 0.5 0.020291733
1.4702322 0.5 0.15629417
1.2210755 0.5 1.1941106
1.2188884 0.5 -1.9309896
0.76576114 0.5 -2.1589234
2.953661 0.5 1.7944269
0.85261691 0.5 -0.55366665
0.79945779 0.5 0.69306886
2.441087 0.5 -0.10102155
2.0870779 0.5 -2.8744862
2.2422142 0.5 -0.36010399
2.2591238 0.5 -1.8152577
2.389369 0.5 -0.081563398
0.88446122 0.5 0.43450391
2.4936192 0.5 -1.7620898
1.7927221 0.5 0.32023561
0.78807783 0.5 -2.3269846
1.2494667 0.5 -0.67172402
1.8270241 0.5 -2.6758285
1.9112087 0.5 -2.611871
1.8066138 0.5 -1.3342677
2.1067004 0.5 -1.220943
1.1194152 0.5 -1.972909
1.1873846 0.5 -0.58754104
1.5494713 0.5 2.5210865
0.51787943 0.5 1.3990252
0.78474247 0.5 -0.70010424
2.7238963 0.5 -0.36053255
0.78366631 0.5 -2.3502655
0.5135234 0.5 -0.24449167
2.6900828 0.5 -0.22937487
1.3019724 0.5 -2.3252068
2.3194249 0.5 0.68828148
1.4635158 0.5 2.5127096
1.9531332 0.5 -0.72948086
1.5540386 0.5 0.49751863
2.719893 0.5 -0.61124974
0.80331326 0.5 -1.6243409
1.103757 0.5 1.2298609
0.56231159 0.5 2.5288312
0.76605463 0.5 -2.3957384
0.95720035 0.5 -1.1906857
2.8948727 0.5 -0.72893149
0.96844053 0.5 -1.0920388
0.56236523 0.5 -2.7145114
1.170266 0.5 -1.3584396
1.5848649 0.5 0.34405857
2.0942397 0.5 -1.9983532
0.94785696 0.5 -0.99304736
1.972741 0.5 0.0039696554
1.5801004 0.5 1.6429912
1.0765491 0.5 1.2443796
2.0687871 0.5 -0.029077893
2.6762302 0.5 -2.969995
1.0862623 0.5 -1.6546721
0.84835529 0.5 1.6041956
1.9803883 0.5 1.2175907
2.2671037 0.5 -1.1949617
1.4323981 0.5 -1.8968412
2.2599375 0.5 2.6734946
2.2632456 0.5 -0.76941353
1.1324049 0.5 -2.4139729
2.1693878 0.5 -0.93237948
2.1936195 0.5 -0.012914716
2.1686153 0.5 -2.1682882
1.0475087 0.5 2.1279809
2.3843384 0.5 0.38951159
0.89899725 0.5 -0.56412965
1.8947986 0.5 1.2761762
0.97549969 0.5 -0.75551188
0.70341182 0.5 1.5309682
1.3445898 0.5 2.9982831
0.85623384 0.5 0.34814289
1.6332167 0.5 0.30947867
1.6439791 0.5 0.97432935
0.95088589 0.5 -2.0572064
2.7242033 0.5 1.9165492
0.54879642 0.5 0.8964166
1.0189044 0.5 -0.99516171
2.0823846 0.5 0.20583178
2.7119777 0.5 -1.5323966
1.4877846 0.5 0.6178472
1.486354 0.5 -1.7065632
1.776473 0.5 1.8276227
2.0343719 0.5 0.95102042
2.846313 0.5 -0.73142868
2.0606518 0.5 -2.7730429
1.157776 0.5 2.2934539
1.9047899 0.5 -0.48762321
2.7340913 0.5 -2.2523921
2.9056177 0.5 1.2612553
1.6826149 0.5 -1.2836262
2.1974876 0.5 -1.7334777
1.1196237 0.5 0.54318929
2.6426425 0.5 0.7256757
0.93515956 0.5 -1.4492253
1.5446835 0.5 -1.8418189
1.3555526 0.5 -2.2929683
0.7667641 0.5 0.36680293
1.1731168 0.5 -0.33949915
0.55011022 0.5 2.9665687
1.6011564 0.5 -0.7789799
2.6708448 0.5 2.7750158
1.6154095 0.5 0.30281943
2.0680673 0.5 2.6718693
2.672797 0.5 -1.8564949
1.3804847 0.5 2.9139025
2.9153337 0.5 1.7606412
2.3261406 0.5 -2.2931278
2.6318097 0.5 -2.5065241
2.9147258 0.5 2.6066618
2.8868663 0.5 1.1259372
1.0360162 0.5 -1.6821978
0.84852946 0.5 -2.9820068
1.100879 0.5 0.85298681
0.82743675 0.5 2.2461584
2.3745158 0.5 -1.8929499
2.3027678 0.5 2.5664046
1.2699687 0.5 -0.55997634
0.68090868 0.5 2.3612881
2.7696788 0.5 -1.2227322
2.4418969 0.5 1.4055638
0.8801778 0.5 1.1934092
2.2820094 0.5 -2.319746
2.267015 0.5 2.3277636
2.9778373 0.5 -1.9431374
2.3496358 0.5 2.615093
1.4270942 0.5 0.18544897
1.0657648 0.5 -2.9471738
1.5324118 0.5 2.2670703
1.0001519 0.5 1.4846376
2.0190952 0.5 0.56644458
0.69039845 0.5 0.29147103
1.6849061 0.5 0.43473279
1.1180278 0.5 -1.2990494
0.55783069 0.5 -2.5562899
2.1771119 0.5 0.062949486
1.856356 0.5 -2.7329304
2.0108967 0.5 0.32687384
1.966875 0.5 -1.1379077
1.3561002 0.5 -1.6725562
2.5932982 0.5 -1.5374807
0.56533539 0.5 -1.8586187
0.80822796 0.5 1.3181679
1.1705053 0.5 2.8981352
2.2530463 0.5 -1.451507
1.883288 0.5 -2.224442
1.935746 0.5 1.1098902
1.7131879 0.5 0.67425621
1.9855828 0.5 1.4775163
2.9338393 0.5 2.8809586
1.827636 0.5 0.10731526
0.60886997 0.5 -0.56215006
2.1577189 0.5 -2.4388721
0.75619221 0.5 -2.0572276
0.67130476 0.5 1.74498
1.8808939 0.5 0.44526663
1.2345957 0.5 -0.77318043
2.1595042 0.5 -2.9141703
2.7213843 0.5 -0.8154102
1.4526479 0.5 -2.7439704
1.3534468 0.5 -1.1844883
1.4428762 0.5 2.7034087
1.9113346 0.5 1.5922028
1.4437281 0.5 -1.285603
0.65808445 0.5 -0.082659081
2.1122344 0.5 -0.53966069
2.48329 0.5 2.7195573
0.62760699 0.5 -0.35527948
0.55608225 0.5 -2.773701
1.2355908 0.5 -2.1127295
1.0222327 0.5 0.044921204
2.0093062 0.5 1.1077569
1.7621468 0.5 1.1598552
0.58898252 0.5 1.5193841
1.6603185 0.5 -2.0844789
1.729201 0.5 1.3066462
2.1789181 0.5 1.4103284
1.9452161 0.5 0.50541556
2.2412822 0.5 2.2661641
2.0526998 0.5 2.17009
1.3133076 0.5 -0.098152034
1.350742 0.5 2.1576655
2.2738726 0.5 -2.9107807
0.74041867 0.5 -1.7963693
2.0065722 0.5 0.87165946
1.2436379 0.5 1.8816309
2.3325098 0.5 2.2715504
1.0077834 0.5 2.8145981
1.4289631 0.5 -0.42494467
0.817433 0.5 1.9180001
2.6258414 0.5 1.0377349
2.7076347 0.5 1.968637
2.0056894 0.5 1.4141154
1.9313399 0.5 -0.96637285
0.92831433 0.5 1.9110124
1.6546972 0.5 -1.3306932
0.72272295 0.5 -2.7650759
2.6156814 0.5 -2.9337177
2.46118 0.5 -2.1918983
2.8153005 0.5 -0.31331867
1.9136339 0.5 2.4107082
2.7784131 0.5 -2.5289879
1.9189438 0.5 1.7759149
0.59737331 0.5 1.3113444
1.402684 0.5 2.6546605
2.9951944 0.5 1.890342
1.6041055 0.5 0.32503533
1.4083353 0.5 -2.3690686
1.3531002 0.5 -2.5278578
0.6796822 0.5 -0.067566425
0.94078112 0.5 0.15828465
2.9497044 0.5 -2.8981645
2.5571945 0.5 1.4448714
1.5371236 0.5 1.7091862
2.6299105 0.5 -2.4874783
2.3421276 0.5 1.6514068
1.4174126 0.5 -1.082603
1.6882755 0.5 0.052616864
1.1624993 0.5 -1.3760468
0.7690475 0.5 -2.4778371
0.82535285 0.5 2.2759883
0.95725673 0.5 -1.808235
0.87239379 0.5 0.043214381
2.0764532 0.5 -1.3950416
1.0007751 0.5 -0.83008963
0.57367361 0.5 -0.25937092
1.9498459 0.5 -1.0135787
2.852015 0.5 2.8577888
2.8958623 0.5 -2.7257192
1.5425681 0.5 2.8092685
1.1074324 0.5 0.42175475
0.50408936 0.5 -0.97388649
2.010952 0.5 -0.99465162
2.0469639 0.5 -2.2599649
0.70949858 0.5 -0.081171066
1.40124 0.5 -0.11293031
1.6173824 0.5 -1.2455847
2.4620314 0.5 -0.80416977
2.3435221 0.5 1.1577541
2.1149547 0.5 1.8341953
1.9560118 0.5 2.9010599
2.3074741 0.5 1.5166326
0.61904615 0.5 -0.57907784
1.4479225 0.5 -1.533267
0.83122671 0.5 0.088386312
0.89886928 0.5 1.7319139
0.99297786 0.5 -2.1152568
2.0309651 0.5 -2.3210177
2.7011065 0.5 2.4018135
1.1659017 0.5 0.73369092
2.6943977 0.5 2.7944872
2.6119475 0.5 1.8601907
1.375808 0.5 2.7390366
1.8583729 0.5 -2.4742391
0.6360954 0.5 2.46084
0.70975065 0.5 0.5289287
2.1530123 0.5 2.9378762
1.4157263 0.5 -1.7012614
0.84990764 0.5 -2.676873
2.8514187 0.5 -2.5904305
0.96282792 0.5 -1.2512019
0.79156727 0.5 2.0809424
2.3417263 0.5 0.053538155
2.1242568 0.5 2.163641
1.6861227 0.5 1.6712159
1.2368226 0.5 -1.6574339
1.6775966 0.5 -2.2352252
1.6258267 0.5 -1.6501749
0.54354465 0.5 0.70645231
2.7742722 0.5 0.56181175
2.4329641 0.5 -0.050448373
0.97563243 0.5 2.073422
2.7097509 0.5 -2.1473653
2.7543662 0.5 -0.85135615
2.0574002 0.5 2.7186613
0.95008022 0.5 1.8376675
2.331275 0.5 2.9402883
1.6939628 0.5 -2.1417806
0.56910849 0.5 -1.763162
1.1578188 0.5 -1.206246
1.6259952 0.5 -1.2047236
1.6680355 0.5 -1.553082
0.89588726 0.5 -1.1115118
2.6853583 0.5 -2.6190498
0.89482182 0.5 2.5499349
0.66037303 0.5 0.36500707
2.1917627 0.5 -2.5931952
2.1420028 0.5 0.17237532
1.4268199 0.5 0.80380905
2.8961215 0.5 1.1643693
1.4013267 0.5 0.84448665
2.4052629 0.5 1.0953629
1.1994979 0.5 0.99794024
2.1257579 0.5 0.605757
1.8082993 0.5 2.0824542
1.4332449 0.5 1.0992475
1.7374176 0.5 -2.313571
1.3984135 0.5 1.9606498
1.5420595 0.5 -1.6906589
2.2119005 0.5 -2.2100506
0.6822083 0.5 -1.0806364
1.3859472 0.5 1.3528647
2.2987494 0.5 2.100158
0.63036644 0.5 2.4698811
1.1351639 0.5 0.31339046
2.8705423 0.5 1.3493475
1.2865819 0.5 -1.4154196
0.71455771 0.5 -0.451895
2.3484325 0.5 -0.60055429
1.257315 0.5 0.62455946
0.59902376 0.5 -1.7301565
1.499554 0.5 2.1220694
2.6269414 0.5 -0.35337958
1.8770729 0.5 0.53559929
1.4353071 0.5 2.2877781
1.6964658 0.5 -2.1598508
2.8209221 0.5 -0.51682484
1.5004385 0.5 -2.951895
1.8770176 0.5 -0.63743645
2.3774796 0.5 -0.37725857
2.8979456 0.5 0.33573061
1.8397429 0.5 -1.3573393
1.108134 0.5 -1.5374475
1.402617 0.5 1.8739953
1.8489497 0.5 2.9727399
1.2554314 0.5 -0.91613513
0.55530727 0.5 2.8034286
0.98599464 0.5 -1.9481916
0.945907 0.5 0.31107351
1.4771041 0.5 -2.5827334
1.7914861 0.5 -1.9732219
2.0712616 0.5 2.5631752
0.7023778 0.5 2.7054579
1.9835839 0.5 1.5002284
1.0452467 0.5 1.4173675
1.02253 0.5 -2.7702656
1.7859758 0.5 0.90827012
1.6221665 0.5 -0.2468009
0.74565947 0.5 -1.2377528
1.0048873 0.5 -1.48168
0.65716523 0.5 1.6031423
2.3015168 0.5 0.33229589
1.9374961 0.5 -2.7912104
1.6920444 0.5 0.33326507
2.9422348 0.5 -2.4940596
1.6233742 0.5 2.5613716
1.4319288 0.5 2.6950526
2.1888206 0.5 -0.41192693
2.3944881 0.5 1.6638898
0.92594868 0.5 -1.0883775
2.160682 0.5 2.0626485
0.99663395 0.5 -1.9224337
1.2735472 0.5 -2.0250723
1.0995557 0.5 -0.9080115
1.3772767 0.5 -0.44524679
0.95565951 0.5 -0.60951793
0.59013587 0.5 2.3169601
2.8360128 0.5 -2.3710022
0.67928541 0.5 -2.7198355
2.0658603 0.5 0.67453384
2.9728415 0.5 1.8178304
2.1917152 0.5 2.1229472
1.2937434 0.5 -1.1530591
2.9813037 0.5 -1.6136245
1.2379799 0.5 -2.0048714
1.6090188 0.5 0.74416739
2.1169505 0.5 -0.60177797
1.5477506 0.5 2.4859731
1.0235857 0.5 0.64355409
0.79011536 0.5 -2.3122733
1.3522269 0.5 2.9738111
2.8670855 0.5 1.2313094
2.1362083 0.5 -0.41706449
0.59709078 0.5 -0.3222864
1.9417778 0.5 1.2802403
1.112504 0.5 2.7849855
1.7326435 0.5 -1.3978939
2.2341251 0.5 2.8140178
1.8057694 0.5 1.445284
2.3420646 0.5 -1.9555826
1.768959 0.5 2.433291
1.7471349 0.5 1.9410576
2.773226 0.5 -2.4013162
0.62077981 0.5 -2.8391392
0.88935184 0.5 -1.1625381
1.9562187 0.5 0.81675941
1.77704 0.5 -2.4113214
2.9419515 0.5 2.2631838
2.7869663 0.5 2.7433493
1.4913697 0.5 -0.57165337
0.62102187 0.5 -2.4226296
2.6487644 0.5 -1.1141084
1.7663122 0.5 -1.7690372
1.2674091 0.5 -2.5404749
1.1333584 0.5 -2.0420461
2.1021399 0.5 2.2786219
2.7827728 0.5 -0.99436986
2.2922072 0.5 -1.7910681
1.6781939 0.5 1.1546897
1.4643184 0.5 2.7287886
1.9406962 0.5 2.8256385
1.4595542 0.5 -1.4190502
2.3879778 0.5 2.7403333
1.3621756 0.5 1.2065521
0.97923803 0.5 0.13999313
2.680943 0.5 0.82089663
2.0797946 0.5 0.034248065
2.9084361 0.5 -2.1779413
1.9009929 0.5 -1.0659943
2.8632343 0.5 1.1436907
2.6372249 0.5 1.3666134
2.4919236 0.5 1.1680533
1.1744655 0.5 2.4890678
0.95807666 0.5 -1.730973
1.9635367 0.5 1.7329085
2.0801976 0.5 0.65741193
2.7642782 0.5 -2.3212428
2.7928183 0.5 0.13572256
2.1077695 0.5 2.3640349
2.9960978 0.5 -2.7495294
1.4491735 0.5 1.8638594
2.5880179 0.5 2.1296544
1.0613956 0.5 1.6610228
0.63561881 0.5 2.2270021
2.0780964 0.5 0.36806694
1.0221868 0.5 1.1262634
1.57003 0.5 0.7802133
1.0043991 0.5 -0.32428652
1.1175011 0.5 1.5495512
0.58753026 0.5 2.610697
2.8788047 0.5 -0.23651257
1.9320209 0.5 -0.25263655
1.2067329 0.5 -1.0781193
2.5909185 0.5 -2.4532938
1.9467536 0.5 -2.5847125
2.2534761 0.5 -1.6123685
0.69202888 0.5 0.35715815
1.3422066 0.5 -1.8533298
1.6124455 0.5 2.2788246
2.903738 0.5 2.6996369
2.579319 0.5 -1.2594575
2.7764127 0.5 -2.3248997
2.9869432 0.5 1.0640166
1.3853759 0.5 2.9658761
0.9297874 0.5 -0.76145136
0.58371454 0.5 -2.1836505
1.9273549 0.5 -1.8898857
2.2249868 0.5 -2.2013996
1.2694281 0.5 -0.25391495
0.66844863 0.5 -1.4114666
2.9181461 0.5 -2.423584
1.4676939 0.5 -2.1541264
0.9051103 0.5 2.7327483
1.7917908 0.5 -2.8204727
1.7633543 0.5 1.6443012
2.397897 0.5 -2.5723011
1.7176059 0.5 0.73073566
0.79251063 0.5 -2.8998182
2.6270103 0.5 -0.40383536
2.8386061 0.5 -0.79233813
1.5148283 0.5 0.67602366
1.0344815 0.5 -0.29140443
2.829587 0.5 -2.8911171
2.6068773 0.5 0.55328071
2.4572711 0.5 1.7311893
1.327522 0.5 0.0095552932
0.97110629 0.5 -0.00074716425
1.5800527 0.5 -2.061923
1.496568 0.5 -2.0464127
1.8330973 0.5 -2.2330406
2.4933791 0.5 -2.3214438
0.55673224 0.5 0.57107979
0.79956925 0.5 2.306848
0.70883346 0.5 -2.5927653
1.1699008 0.5 -1.3947079
2.6125584 0.5 2.4741268
2.6205213 0.5 -2.014673
2.6211438 0.5 -1.9062319
1.839413 0.5 -1.3502032
1.044757 0.5 0.60050184
2.9056242 0.5 -1.0685945
2.3401606 0.5 -2.1780648
2.8160605 0.5 0.083039701
2.2384338 0.5 -0.51626718
1.8990718 0.5 0.29821995
0.56132835 0.5 -1.0731993
2.6231008 0.5 -2.413506
1.8019949 0.5 -2.0498762
0.89052147 0.5 2.8821278
2.0156908 0.5 -2.3140962
2.516109 0.5 -1.1381198
0.90660429 0.5 0.030222015
2.7216585 0.5 2.2818074
2.790858 0.5 -1.7839929
0.72108078 0.5 -2.0900593
0.9695974 0.5 -1.9311957
1.8639301 0.5 -1.3169577
1.3751851 0.5 0.24809231
0.58341527 0.5 0.78652257
2.9851885 0.5 -1.9786612
2.4136019 0.5 -0.057548761
0.8620351 0.5 -0.3446292
0.88722014 0.5 0.41098225
2.7887263 0.5 2.5634561
1.7753869 0.5 -0.39481601
1.017103 0.5 -1.29977
2.6264327 0.5 -1.7524449
1.2238975 0.5 0.76751351
1.4306411 0.5 -0.25120804
2.0860765 0.5 1.5537314
1.2349608 0.5 -2.2755857
1.2829181 0.5 0.48536488
1.5701091 0.5 -1.3611342
1.9125943 0.5 1.9859333
1.5488077 0.5 2.8760293
1.8778211 0.5 -1.3296422
2.9609628 0.5 1.4199712
1.9213334 0.5 2.5605223
2.5609281 0.5 0.80117178
2.770268 0.5 -2.0240474
1.5650443 0.5 -2.5432451
0.96136558 0.5 -0.49688512
1.3658364 0.5 -1.9151893
2.5001149 0.5 -0.079964839
1.6550592 0.5 2.7752047
1.5517503 0.5 0.090968251
2.6597855 0.5 -2.958451
1.3430948 0.5 0.69461071
0.97686344 0.5 -2.5475397
1.6445066 0.5 0.30376059
0.8312127 0.5 1.9419345
2.9505837 0.5 1.5196102
0.8646546 0.5 2.3814168
2.4606457 0.5 -1.9383366
2.527283 0.5 -2.7538259
2.3399537 0.5 -2.2227004
2.4157605 0.5 -1.64473
2.3811364 0.5 2.7723598
2.9599786 0.5 -0.37310317
2.5829284 0.5 -0.69816822
2.8360622 0.5 -2.3012865
1.9543408 0.5 -1.4580432
0.72068262 0.5 -1.6538036
2.7051966 0.5 -1.2497019
1.8204771 0.5 -2.2316713
1.615332 0.5 -1.4757409
0.96758223 0.5 0.31155324
2.3381906 0.5 0.15907931
2.1484904 0.5 -0.57884151
2.4594097 0.5 2.3720117
0.54121649 0.5 -1.5626369
2.458955 0.5 0.69396251
1.1739911 0.5 0.26287371
2.5521607 0.5 2.1845596
1.0935791 0.5 0.53898507
2.953305 0.5 -1.1013548
1.6830891 0.5 -0.96263731
1.9427168 0.5 -0.081283286
2.0752831 0.5 -2.1519036
2.5576508 0.5 -0.72203785
2.0343273 0.5 2.0954468
0.83652455 0.5 2.2140646
1.4148266 0.5 -2.5975018
1.6338881 0.5 -2.6271746
0.95435441 0.5 -1.2414203
1.4035087 0.5 1.1940641
2.3213043 0.5 -1.7078067
0.62350214 0.5 -1.4273779
0.69123822 0.5 -0.12513752
2.4844911 0.5 -1.1741887
0.58618939 0.5 2.2726996
2.3323951 0.5 -2.7219567
1.6774489 0.5 0.98000318
1.3420335 0.5 1.7006425
1.0313458 0.5 0.13357668
2.0658627 0.5 -1.5104769
0.56091613 0.5 1.3070841
1.9840884 0.5 2.8349516
0.67357004 0.5 -0.25315854
0.77785128 0.5 0.14054655
1.7563418 0.5 -1.8691272
1.1502582 0.5 -1.0015372
0.91855556 0.5 1.2317393
1.7352248 0.5 -2.822607
0.6524269 0.5 -1.9587001
0.76374084 0.5 2.1790035
2.0224717 0.5 1.5848722
0.61170834 0.5 1.1389436
2.9741678 0.5 0.92250073
0.68513334 0.5 -0.087447308
0.80225551 0.5 2.3558211
2.3598614 0.5 -0.82306904
0.69447583 0.5 -0.70325547
1.7209252 0.5 -1.5938822
1.5730977 0.5 0.12212385
0.70534778 0.5 0.52940071
2.521184 0.5 1.0097769
1.3419108 0.5 -0.27105924
2.2910304 0.5 2.7406256
0.55978101 0.5 2.5436134
0.63265377 0.5 0.85421151
2.5958381 0.5 2.9451194
0.78172898 0.5 -2.5382941
1.3677752 0.5 0.61373848
2.6960104 0.5 1.8720952
2.7977803 0.5 0.44694093
0.73894751 0.5 -0.8487525
1.5804282 0.5 1.3846141
1.806311 0.5 -1.8894771
1.5901656 0.5 2.6165004
1.2098435 0.5 0.70622998
1.9216864 0.5 1.0277934
1.8759527 0.5 -1.5827278
1.4911977 0.5 0.60277247
2.0026464 0.5 -0.91053438
1.0627258 0.5 -1.4647136
1.4351766 0.5 1.4443135
2.1424704 0.5 -2.4342065
0.79631543 0.5 2.5733361
2.3708797 0.5 -2.7842028
2.0512965 0.5 -0.1542542
2.6398215 0.5 0.039311271
0.99631608 0.5 -0.2624431
2.3152559 0.5 1.5269052
2.8175664 0.5 -2.4265797
1.076345 0.5 0.083590403
2.2969396 0.5 -1.0273381
1.0005342 0.5 0.26759982
0.52903962 0.5 1.0754347
2.6734862 0.5 0.1914683
2.4936554 0.5 0.15931411
2.6222005 0.5 -1.8331836
2.6549599 0.5 2.1581964
2.8736625 0.5 0.6726464
1.6460835 0.5 -0.99027222
1.1682332 0.5 1.9831691
1.2378919 0.5 -1.0982778
2.094007 0.5 -2.184351
2.3170068 0.5 -0.62600267
0.71320236 0.5 -1.3127099
0.87275928 0.5 -0.86097318
1.0055211 0.5 -2.9770222
2.533174 0.5 -2.6886506
1.8316711 0.5 -1.5785861
2.3922098 0.5 -0.24960119
0.71743667 0.5 -2.6122303
2.3700776 0.5 1.1311867
0.78530902 0.5 0.25078425
2.6056015 0.5 2.4052293
0.6272704 0.5 -1.1678579
1.7211953 0.5 -2.3228731
2.438673 0.5 0.02452874
2.4195249 0.5 0.31213635
2.1600671 0.5 -0.44813901
0.97555548 0.5 -1.9594418
1.1835564 0.5 1.2726245
0.86041498 0.5 1.4712775
1.8030705 0.5 -0.5827387
2.0120575 0.5 -1.8746082
1.5164152 0.5 -0.42232051
2.4896302 0.5 -2.4173441
1.9253577 0.5 -2.0189929
1.9457983 0.5 1.0604504
2.2059119 0.5 -1.6999135
2.5793612 0.5 -1.6100283
1.7122294 0.5 -1.7810669
2.7727497 0.5 -1.1961987
1.4988142 0.5 0.95370132
1.9844298 0.5 -0.23792574
1.0466033 0.5 2.6748745
1.3985372 0.5 0.57725799
0.91299045 0.5 -0.80604899
2.5954845 0.5 0.33826977
0.97919315 0.5 1.862571
2.3957877 0.5 0.95753884
1.2374779 0.5 0.87277442
2.7217004 0.5 1.220508
1.2185326 0.5 0.13192628
2.0132837 0.5 0.85781354
2.211555 0.5 -2.8033991
1.9406173 0.5 -1.1365408
2.4216657 0.5 -1.1801116
0.59337318 0.5 2.9586406
0.87526464 0.5 0.78426385
2.4274073 0.5 -1.1051204
0.72535622 0.5 -2.8806522
1.4526683 0.5 1.3834836
2.4697583 0.5 1.0848923
2.5796969 0.5 -2.5676167
0.79454142 0.5 1.7062651
0.63070726 0.5 1.923158
1.5778246 0.5 -2.6356394
2.5612509 0.5 -2.8627024
2.5267849 0.5 0.66479701
0.68033797 0.5 0.74183691
1.6012716 0.5 1.7038504
1.5018152 0.5 -2.3319042
2.6547184 0.5 -0.82219726
1.0587952 0.5 -1.1284306
0.69847572 0.5 0.48853019
2.1203632 0.5 1.5773705
1.222995 0.5 -1.9722097
0.91936123 0.5 2.4790967
0.80494654 0.5 0.43630111
1.3589441 0.5 0.7063942
1.9771415 0.5 1.2469147
0.89701676 0.5 2.9306374
2.8402703 0.5 -0.97806966
1.0254347 0.5 -1.5211383
1.9657936 0.5 2.4176567
2.3729022 0.5 -0.47102374
1.1873775 0.5 -2.8177803
2.8308854 0.5 1.638038
2.3967993 0.5 -2.8904376
2.7603836 0.5 1.3592426
0.84904546 0.5 1.1495737
1.8881412 0.5 -2.1420829
1.8303388 0.5 2.7202542
2.6453969 0.5 -0.96897966
1.4130121 0.5 -2.4558759
0.92772597 0.5 2.8872082
1.3202457 0.5 -1.1861346
1.168396 0.5 -2.9882944
2.5334277 0.5 2.15639
2.4421256 0.5 -2.3552184
1.0748278 0.5 1.3266166
2.0328059 0.5 -0.77443498
1.3178749 0.5 0.030577751
1.0847534 0.5 2.9172421
1.8922365 0.5 1.5628588
1.4387997 0.5 2.4559581
1.3448067 0.5 1.1739101
2.3332522 0.5 -2.688925
2.3234973 0.5 0.48009899
1.620489 0.5 0.98373336
1.083171 0.5 1.9062222
2.1886849 0.5 1.4944806
2.8340473 0.5 -2.6791453
2.8595288 0.5 0.43828657
2.7905641 0.5 -2.2930422
1.5929464 0.5 -1.6610692
1.1395781 0.5 -2.013391
2.1178365 0.5 0.16778792
1.8586074 0.5 0.76229817
2.2586899 0.5 -0.68735921
0.57846761 0.5 1.3022135
2.1669862 0.5 -0.75643492
0.91238666 0.5 -1.1921061
0.64500785 0.5 2.3294814
1.0102466 0.5 -2.1375406
2.9211152 0.5 -0.072159179
1.8053396 0.5 -2.0205457
0.98316532 0.5 -0.16883503
1.1229886 0.5 0.50532109
1.7582371 0.5 2.186394
2.3310363 0.5 1.5672722
0.91621447 0.5 2.9745722
1.5465769 0.5 1.1827291
2.5399988 0.5 2.2223206
1.9812332 0.5 -0.01058895
1.262517 0.5 -2.1103928
1.3226496 0.5 -1.9776905
0.50643784 0.5 0.78639197
0.64713371 0.5 -1.2254223
1.0682346 0.5 -0.77488041
2.8902297 0.5 0.41849968
1.6962898 0.5 -2.0625024
1.6751 0.5 -1.2013692
2.6607077 0.5 -0.51424527
2.0126414 0.5 -0.43941742
2.0214655 0.5 0.26992789
1.2801263 0.5 -1.6668458
2.9282017 0.5 -0.64356208
1.0835284 0.5 -0.36786467
2.1047137 0.5 1.6020517
2.7504473 0.5 -2.0334826
0.59919703 0.5 -2.9643707
2.3179491 0.5 -2.1511512
0.81909001 0.5 0.78592998
1.2476277 0.5 1.1981887
1.613809 0.5 2.5254679
1.8387488 0.5 -1.8399265
0.72778702 0.5 -1.1621106
1.2640887 0.5 -0.660855
1.5706426 0.5 0.84148103
2.9056857 0.5 0.89038259
2.1002545 0.5 2.3748319
2.0705636 0.5 -2.2694013
1.3631895 0.5 -1.7568196
2.0181313 0.5 -0.059407849
0.51662171 0.5 0.18775481
2.6211782 0.5 -1.2522534
1.6544503 0.5 -2.2305942
2.6228757 0.5 0.9091689
0.67358822 0.5 1.5134001
1.3748224 0.5 -1.8181679
2.1168079 0.5 -2.2419724
1.5958345 0.5 -1.8473155
0.98700213 0.5 1.8355669
2.4510186 0.5 2.7209713
2.500525 0.5 1.9429467
2.6569874 0.5 2.7714207
1.2005318 0.5 0.87323892
0.55936027 0.5 2.8919637
1.317001 0.5 -0.19545962
2.5781677 0.5 -0.38577846
1.5933076 0.5 2.4964027
0.96161789 0.5 -0.49170333
2.5010476 0.5 2.5228312
1.5306866 0.5 -0.3757166
1.2981628 0.5 -1.248548
2.9172852 0.5 -1.6667932
2.7268023 0.5 0.47037891
0.95450139 0.5 -1.8214154
0.86447114 0.5 -0.38075781
1.0273541 0.5 2.989887
1.3488362 0.5 1.5391858
0.9291718 0.5 -1.4034859
1.3389246 0.5 1.8521885
0.941284 0.5 1.6421133
1.2543812 0.5 0.83266819
2.294838 0.5 -2.6116078
1.1838323 0.5 -2.2311857
1.5758147 0.5 -1.921996
0.59366089 0.5 -2.5932074
0.91095906 0.5 -2.75822
0.90253162 0.5 -1.2352017
2.1851864 0.5 -0.26612499
0.85475802 0.5 -1.6983054
2.3982484 0.5 -1.3673096
1.2666763 0.5 -1.9941093
1.9605664 0.5 -2.521651
1.6369063 0.5 2.7213557
0.99622774 0.5 0.46646172
2.5978911 0.5 1.6489332
2.2588971 0.5 -0.46422967
2.0574138 0.5 0.29812956
0.5867486 0.5 0.64703566
0.80851942 0.5 2.0026512
2.223774 0.5 0.88780761
0.86319858 0.5 -0.6782214
2.5249562 0.5 2.6224406
2.1263323 0.5 2.3872585
1.8941286 0.5 -0.44305417
2.2828467 0.5 1.6112428
1.1569576 0.5 0.27258226
1.5438156 0.5 -2.4169598
1.792257 0.5 0.58356088
2.3314533 0.5 2.1758716
1.5003294 0.5 0.046080731
2.240169 0.5 -1.8363012
2.8053536 0.5 -2.3792014
2.4907207 0.5 1.2863892
1.9801029 0.5 -0.78905016
2.3493147 0.5 2.8091805
1.1920171 0.5 -0.93998724
1.4191689 0.5 -0.93969065
0.93330199 0.5 -1.0434924
1.4196028 0.5 -1.5175176
0.73282915 0.5 1.0600712
0.77122974 0.5 1.0384634
2.3014808 0.5 0.446803
1.7841487 0.5 1.8067414
2.8561397 0.5 1.8396339
1.0136815 0.5 1.0119424
0.85466516 0.5 -0.97259998
1.6379879 0.5 -2.1858363
2.4210634 0.5 1.9497812
0.79064047 0.5 0.91146994
2.0552385 0.5 -1.0735539
2.9386311 0.5 0.32384077
1.3040173 0.5 2.3405519
1.6763531 0.5 -0.74612784
0.68197089 0.5 0.92782736
2.2149992 0.5 -0.3287046
0.5582844 0.5 -0.56000227
1.3687844 0.5 1.8943026
0.69031471 0.5 0.74856544
2.3151324 0.5 -0.70635146
0.5746907 0.5 -0.94353247
1.469319 0.5 1.5061892
1.7391863 0.5 -1.2306229
1.1896461 0.5 2.4960351
1.8114194 0.5 0.58881474
2.5846088 0.5 2.2980123
2.8585293 0.5 1.432808
0.82519788 0.5 1.9331892
2.4037833 0.5 -1.7388465
0.52758789 0.5 1.8932724
1.1162142 0.5 -0.9139843
1.9024912 0.5 -2.8610537
0.6576488 0.5 2.7729437
1.6831678 0.5 -1.0964574
1.2631971 0.5 2.6383362
1.753876 0.5 0.2382139
1.1688862 0.5 0.90803295
2.3628929 0.5 -2.6203933
1.4738839 0.5 -1.5611314
2.9229226 0.5 2.6800282
2.0006497 0.5 -0.88855386
2.7623031 0.5 0.26026231
2.6465147 0.5 -1.1189942
2.4573009 0.5 2.8053017
0.87101537 0.5 -0.065312102
0.56962883 0.5 2.8268533
0.76814038 0.5 -2.4186294
1.5248345 0.5 -2.4006431
1.2084956 0.5 -1.667197
2.5094383 0.5 -0.9668563
2.2427952 0.5 1.0059725
2.9832568 0.5 2.7280781
0.70014197 0.5 1.6393625
1.6326373 0.5 -1.9704481
1.4703885 0.5 -0.2173702
1.5248153 0.5 -2.9689436
1.3805263 0.5 -0.52318031
0.89605087 0.5 -0.31288853
2.8965869 0.5 1.2712575
1.7859176 0.5 -2.1371336
2.5916312 0.5 1.8037893
0.92994171 0.5 -1.1852088
0.70334017 0.5 -0.1424457
2.0694757 0.5 1.4484438
1.2115157 0.5 0.19966018
1.3926574 0.5 2.0344312
1.3667771 0.5 1.1909708
1.8027606 0.5 1.5773116
2.0635011 0.5 -2.8138473
0.62288231 0.5 0.46170905
2.403827 0.5 -0.20092492
1.4069847 0.5 -2.920049
2.3946586 0.5 2.8793433
2.5133634 0.5 -1.1978022
1.2203999 0.5 0.68072754
1.3867832 0.5 -1.3934312
0.58214265 0.5 -0.16276643
1.5746182 0.5 -2.4073627
2.8890448 0.5 -1.5278631
2.7339175 0.5 2.1914649
0.61867499 0.5 2.3650241
0.78611243 0.5 0.05451319
0.71948647 0.5 0.98801064
0.61893916 0.5 -0.80487877
1.6171077 0.5 -1.4755656
2.1843805 0.5 -0.21744138
0.84557331 0.5 2.9994495
0.98121196 0.5 -1.3447706
2.9873476 0.5 -1.5662928
1.7605668 0.5 1.9352738
1.0867875 0.5 -1.588847
0.55764085 0.5 2.330802
0.60306847 0.5 2.3463471
1.4264107 0.5 -1.7779284
2.0971429 0.5 2.0739894
0.82678097 0.5 -0.43419036
1.0079821 0.5 -1.8929625
1.0075234 0.5 1.6412765
2.1281657 0.5 -1.2564441
0.93340957 0.5 0.55231267
2.5461378 0.5 -2.9905913
1.3701769 0.5 -2.7722046
0.81251192 0.5 2.8172019
2.7678013 0.5 0.0049260333
1.7494082 0.5 -1.5331795
0.97773272 0.5 2.0826898
1.339558 0.5 0.046887811
2.9170268 0.5 -1.5885403
1.7847571 0.5 0.11500991
2.831794 0.5 -0.15415968
0.79205447 0.5 -0.89745444
0.78421378 0.5 1.7099183
0.59438431 0.5 -2.6460643
2.9420526 0.5 1.693903
2.9461575 0.5 -2.6583133
1.7238071 0.5 -1.0148607
0.95938182 0.5 2.9809868
0.99845499 0.5 -2.5561411
2.3222387 0.5 -1.0850941
2.4180801 0.5 -0.13413852
2.5465467 0.5 -1.6385483
0.79442531 0.5 -1.1871704
2.2193573 0.5 1.1108067
1.9244107 0.5 0.7558046
0.83599645 0.5 -1.9000924
0.55125755 0.5 -0.61765933
1.3969748 0.5 0.34269595
1.3811306 0.5 -2.9681647
1.0112481 0.5 1.1353421
1.9154931 0.5 -2.1006722
2.0272753 0.5 0.41646773
0.89273214 0.5 -2.0733197
1.8820407 0.5 -0.84343296
2.807713 0.5 -2.5440092
0.93755025 0.5 1.1799744
2.5209606 0.5 -1.2845082
0.53567666 0.5 1.9403001
0.82125658 0.5 -0.19423807
0.79472721 0.5 -0.6348623
1.7408457 0.5 -0.37718278
0.99140584 0.5 -2.5753591
1.3384622 0.5 -2.1268461
0.56622875 0.5 -0.74156141
1.2690896 0.5 1.0655696
0.88909721 0.5 1.7927736
1.8724092 0.5 2.5814867
2.9428327 0.5 -1.4465694
2.0597496 0.5 -1.369009
2.2216146 0.5 -1.9049462
2.7506666 0.5 1.1394753
0.56498551 0.5 2.2067347
2.7111182 0.5 0.74527264
1.9834899 0.5 0.94225961
2.6014576 0.5 0.90850222
0.98943233 0.5 -1.3998052
2.4834104 0.5 1.3162608
2.1346493 0.5 1.2755283
0.84012371 0.5 1.6203039
1.9809645 0.5 -2.3187521
1.0684198 0.5 -1.5062149
2.0179825 0.5 1.2833649
1.3569281 0.5 -2.0666695
1.9779886 0.5 -2.9294486
2.7632051 0.5 -1.7151352
1.0202901 0.5 0.96773845
2.1867945 0.5 1.8672328
0.78367847 0.5 2.6981263
1.8466188 0.5 -2.4007194
0.69687194 0.5 1.16925
2.6291652 0.5 2.6385803
1.3843443 0.5 1.1858934
2.453815 0.5 -2.3865483
1.6760397 0.5 2.3673909
1.6172469 0.5 1.8699826
0.54652625 0.5 -1.9598931
1.352975 0.5 1.429896
2.9090023 0.5 2.8614779
2.6574409 0.5 -1.7012084
2.1580405 0.5 2.3180962
0.63241535 0.5 0.61708772
2.8312323 0.5 0.73765832
1.3194768 0.5 1.8865427
0.808267 0.5 -1.8090134
2.7810926 0.5 -1.44733
1.8394114 0.5 1.7099949
0.97265565 0.5 0.99681318
2.1642356 0.5 -0.62404561
2.0488005 0.5 -1.8672205
0.96647418 0.5 -0.34664178
2.898221 0.5 1.3810613
0.91246074 0.5 -0.4766942
1.527176 0.5 -1.916905
0.59929496 0.5 -1.7683636
2.106806 0.5 2.9605184
0.81291443 0.5 -1.2085046
2.2379103 0.5 0.48006067
0.56858778 0.5 -2.6424196
1.0886258 0.5 1.3937075
2.6446428 0.5 -2.134644
2.933511 0.5 -0.034478839
1.5843955 0.5 0.73179251
1.9816407 0.5 2.4124784
1.0790616 0.5 -1.4630847
2.5526979 0.5 0.25100201
2.5197964 0.5 -0.64621311
1.0268836 0.5 -1.608611
1.4269341 0.5 1.5680915
1.1289505 0.5 0.38613281
2.2903733 0.5 2.763943
1.5692433 0.5 2.0196185
1.5979757 0.5 -1.7702469
2.2078028 0.5 2.7534866
1.7182015 0.5 -0.85588008
2.9374387 0.5 0.88644093
0.64660704 0.5 -1.2924991
1.185118 0.5 0.78404945
2.5256271 0.5 -0.35790515
1.33237 0.5 -0.63811183
1.6541473 0.5 -0.49188998
1.4574332 0.5 0.26588139
0.64044863 0.5 1.3411474
2.1156545 0.5 1.1943822
1.9102265 0.5 -1.7424909
2.6234598 0.5 -1.7538371
0.86216068 0.5 -1.1889391
1.9392432 0.5 -1.2563014
2.5926178 0.5 -2.4359846
2.890872 0.5 1.3704084
0.92263192 0.5 -2.4532802
1.3325403 0.5 -1.8192439
1.5541081 0.5 -2.5027785
2.671731 0.5 2.2356765
1.1670494 0.5 -0.43041629
2.6191251 0.5 -1.5500824
1.5806562 0.5 2.8456771
2.5714388 0.5 -1.9634131
1.1183566 0.5 0.5119018
0.64834368 0.5 0.059234358
1.7903507 0.5 -0.99154371
1.3347508 0.5 -0.072772957
2.8507874 0.5 -2.3225405
2.4364362 0.5 0.51109344
1.7995001 0.5 0.39191803
2.1581802 0.5 2.8208945
0.94991565 0.5 2.684464
0.8213132 0.5 -1.2751251
2.4574909 0.5 -2.3769276
2.8840756 0.5 0.34777674
2.9334376 0.5 -1.8257841
1.259724 0.5 -1.3028399
1.3203682 0.5 -2.0448253
0.75581867 0.5 2.3928878
1.1817298 0.5 0.54140967
1.5083282 0.5 1.2328818
1.3590736 0.5 -0.22114134
1.0961269 0.5 1.6951274
2.1587312 0.5 0.91114122
1.6395043 0.5 0.3051675
1.9293182 0.5 1.2476146
0.95080495 0.5 0.19176275
2.0365047 0.5 1.9568558
1.2405258 0.5 -0.045672383
0.73459905 0.5 -2.6938889
1.1857738 0.5 -1.3319221
2.2131753 0.5 0.50985378
2.3974597 0.5 0.073361427
1.3100659 0.5 -1.9858581
2.0693502 0.5 -0.75924551
2.3236566 0.5 -2.4527581
0.86333537 0.5 -2.0579395
1.0231377 0.5 2.6475627
2.6538508 0.5 -0.54416853
2.6919112 0.5 2.2588501
2.4368186 0.5 2.1835253
1.0467536 0.5 -0.13908918
1.4716319 0.5 -1.8100053
1.5327663 0.5 2.4713988
0.68764806 0.5 1.5001974
1.3203527 0.5 -2.2441778
0.86431772 0.5 0.52912432
2.5792673 0.5 0.65787655
2.2855697 0.5 1.6752598
2.7390435 0.5 2.9741621
2.1214185 0.5 2.0959928
1.4410231 0.5 0.27363396
1.5569308 0.5 0.72822684
0.56526846 0.5 2.1548989
2.6247675 0.5 -2.4647911
1.3749319 0.5 1.9630711
0.74508023 0.5 -1.8973536
1.1860172 0.5 2.4594014
1.7342476 0.5 -2.60607
0.63029742 0.5 -2.3830321
0.60876584 0.5 -1.4841764
2.3554265 0.5 1.2414253
2.5834548 0.5 2.1646323
0.69031048 0.5 -1.3271589
2.4860594 0.5 0.71486324
2.0400522 0.5 1.0869908
1.1759447 0.5 1.8962996
2.7570727 0.5 -2.2007291
2.3065739 0.5 -1.6478425
1.9782989 0.5 -0.78180808
1.4641589 0.5 -1.8614759
2.7009726 0.5 -1.0703715
1.2354937 0.5 -1.5475839
0.53935385 0.5 -2.1031184
1.6453197 0.5 -2.208374
2.241039 0.5 -0.36354792
0.64686465 0.5 1.8128181
2.2271144 0.5 1.0853088
1.5610553 0.5 1.8388966
2.9342575 0.5 2.7488415
1.0857642 0.5 -0.78930521
2.6369941 0.5 1.0562807
1.0289704 0.5 -0.82340199
2.3186235 0.5 0.81889588
1.5712223 0.5 0.19766113
0.91153401 0.5 1.4244889
1.2144907 0.5 -0.46245041
2.7251723 0.5 2.2088993
1.1295964 0.5 0.12323665
2.6620102 0.5 2.8115327
2.4527116 0.5 0.65681946
0.61046582 0.5 -1.1432732
1.4906998 0.5 2.5123193
2.1768682 0.5 -0.92859018
2.8592813 0.5 0.7192446
0.52399898 0.5 -2.5991459
1.711073 0.5 -1.6552845
2.0964484 0.5 2.7839606
1.4371977 0.5 -2.1859031
1.5398949 0.5 -1.5089544
1.3828388 0.5 -1.5349228
1.9301884 0.5 1.1252842
2.8829162 0.5 1.3504101
2.4765155 0.5 -0.7578842
0.75034076 0.5 -1.4508252
1.3497113 0.5 -2.6376069
1.0156661 0.5 1.6817775
2.3950698 0.5 0.39615476
2.2150371 0.5 -2.8660476
1.5366229 0.5 -1.930353
2.7940848 0.5 0.33791205
1.5731872 0.5 1.8780301
2.5109241 0.5 -1.606988
1.1362658 0.5 -0.34818745
1.7678359 0.5 1.9205246
2.9768569 0.5 -0.52166045
2.6748626 0.5 -0.57608396
1.5763439 0.5 -2.5462456
1.9064728 0.5 -2.6410444
1.7948459 0.5 0.98371732
0.90347344 0.5 0.38579684
1.1850668 0.5 1.5041025
2.750092 0.5 -2.4819074
1.5892485 0.5 2.831531
1.8794047 0.5 -0.4815636
0.97984183 0.5 -2.1512496
1.4145589 0.5 -1.4397351
1.8946289 0.5 0.002304385
1.5165001 0.5 0.62291813
1.2173706 0.5 -2.4874792
2.0371351 0.5 1.1049423
2.3586323 0.5 -1.0102299
1.1120511 0.5 -0.32862636
0.68030721 0.5 0.41054168
0.5399164 0.5 -2.0138602
0.94121939 0.5 -0.58940679
2.7339275 0.5 -1.7747887
1.4337068 0.5 -1.2517833
1.435627 0.5 -2.4165452
1.9547255 0.5 -2.1351223
1.5276248 0.5 2.3378675
2.44841 0.5 0.36269286
0.79026842 0.5 1.0876285
1.0641237 0.5 0.11966239
1.4062418 0.5 -0.80698192
0.58445853 0.5 -2.0701115
1.0756309 0.5 -1.430712
2.5546215 0.5 2.4648671
1.0977741 0.5 1.7188222
0.61156183 0.5 1.8336221
2.3908305 0.5 -0.79298401
1.8390534 0.5 -1.9827049
2.1412973 0.5 -0.90688699
0.54765451 0.5 -0.047437742
0.64737314 0.5 -2.2358882
1.3198581 0.5 1.9538019
0.54495108 0.5 -1.3524286
1.7372111 0.5 -1.8715032
1.2912669 0.5 0.51333034
2.7236187 0.5 -0.90082806
1.7516372 0.5 2.5214756
2.4124572 0.5 -0.48021537
1.5647112 0.5 1.7872772
2.3204503 0.5 0.7712875
2.3599818 0.5 -0.84278792
1.723222 0.5 -1.0156386
0.85139018 0.5 1.8792464
1.9784139 0.5 2.2084
1.038 0.5 0.25488243
1.4657753 0.5 1.4352392
2.2164652 0.5 -1.8845924
1.817695 0.5 0.94080973
2.2178745 0.5 1.966584
1.2072722 0.5 -0.04954347
1.8500117 0.5 1.3093508
2.552335 0.5 0.55298781
0.89870048 0.5 2.8505661
2.4647391 0.5 0.63279778
1.8050724 0.5 -2.3645496
2.0174744 0.5 -0.76464421
0.71350712 0.5 0.66670328
2.2840009 0.5 2.8637109
0.56800896 0.5 -0.33837214
2.2068288 0.5 2.9975739
2.2481151 0.5 1.8887535
0.83924079 0.5 -2.2477999
1.300064 0.5 -0.028514152
1.1755358 0.5 -2.5833254
1.7028673 0.5 -2.7837362
1.1733254 0.5 1.1430776
1.8105289 0.5 -1.5621773
2.3661151 0.5 -0.56251085
2.2525408 0.5 -1.6242938
2.5345175 0.5 0.53480327
2.5324957 0.5 -1.0653268
1.606457 0.5 -1.0586523
0.9796235 0.5 -1.5304184
1.0033853 0.5 1.3598715
0.65615636 0.5 2.7554114
2.9759367 0.5 -2.9719207
1.4285012 0.5 0.44463867
2.7303157 0.5 -0.058157552
0.69907469 0.5 2.7532871
2.0526528 0.5 -1.4966115
2.4983222 0.5 -2.3376739
0.88609457 0.5 0.58582532
1.7683048 0.5 -2.7940536
0.54365343 0.5 -2.8129246
1.6768796 0.5 1.2752365
1.4730558 0.5 -0.54553872
1.4496565 0.5 -1.3884758
1.8201888 0.5 -1.4707507
1.8686533 0.5 -0.65607458
1.6630594 0.5 -2.2828195
2.9102356 0.5 -0.34855944
2.3582973 0.5 -2.7420478
2.8464851 0.5 -2.7110844
2.6748629 0.5 -0.28418311
2.5189667 0.5 1.0446696
1.0816638 0.5 1.77628
1.5362794 0.5 -0.62209195
2.6933424 0.5 -2.1442828
1.4189681 0.5 -0.90536308
1.9656969 0.5 1.5296268
1.3680465 0.5 1.5518774
1.6585127 0.5 -2.0374413
1.4435525 0.5 -1.0449711
1.2027894 0.5 -0.10488496
1.4396087 0.5 -0.57705444
2.3101666 0.5 -2.2168908
1.2904 0.5 1.9963152
1.80881 0.5 -0.35996598
1.0957122 0.5 -0.36600074
1.8501815 0.5 -1.7677068
0.62487054 0.5 0.06169549
1.9181017 0.5 0.58564091
1.1159694 0.5 -0.92536831
1.9867787 0.5 0.87493128
2.0741827 0.5 0.24725442
2.5550616 0.5 -0.31757411
1.9024706 0.5 1.6314291
1.0660666 0.5 -2.5772951
1.3660383 0.5 1.6259228
1.6710389 0.5 2.4333868
0.64412785 0.5 1.2825067
0.69554079 0.5 -1.5218418
1.1835748 0.5 -2.89344
1.9547151 0.5 -2.1083853
2.6838245 0.5 -2.4508612
2.8898699 0.5 1.9655371
0.65451497 0.5 2.4286928
2.0140393 0.5 -1.4624207
1.6617851 0.5 1.2110032
0.51672089 0.5 -2.5798035
2.5445433 0.5 -1.0984484
1.1132988 0.5 1.3188152
2.3815002 0.5 -2.2783456
2.2927003 0.5 2.0220103
1.5496881 0.5 0.65469456
1.0920725 0.5 -1.7534525
2.73002 0.5 -1.5351753
2.2539308 0.5 1.996178
0.97261471 0.5 -0.49642664
1.9817841 0.5 -0.40192193
1.6316203 0.5 -0.48037067
2.546994 0.5 -0.7934683
1.1460066 0.5 -1.9268558
0.5446279 0.5 1.8059014
2.2296367 0.5 -1.3055365
2.7752154 0.5 0.67301536
1.7364258 0.5 -0.22591226
0.51573855 0.5 1.5956562
2.1792202 0.5 -1.3595424
2.5929091 0.5 1.1434935
2.927844 0.5 0.38089666
0.82815295 0.5 -0.3542583
1.4893765 0.5 2.5854204
0.59508967 0.5 -0.96782261
2.1000075 0.5 -0.60985065
0.6879546 0.5 0.96236569
1.2488008 0.5 0.99090475
1.437061 0.5 0.12416077
2.7667744 0.5 -2.8245544
1.3997264 0.5 -1.303089
2.3526378 0.5 -1.1395679
2.6700516 0.5 -0.43243936
2.9652669 0.5 0.50051874
2.6197839 0.5 -0.62215167
0.92630261 0.5 -2.8193486
1.4345115 0.5 1.7468038
2.2364829 0.5 2.15797
0.56223685 0.5 2.5880222
0.66570419 0.5 -2.033139
0.51949954 0.5 0.98974675
1.6054071 0.5 2.8597672
2.555047 0.5 2.1235714
2.9154131 0.5 -2.5746274
0.83251202 0.5 0.13979095
1.3509718 0.5 -2.6249635
1.2004288 0.5 2.3356817
2.6560986 0.5 2.9449608
1.9544069 0.5 1.6787128
1.6110922 0.5 0.13259436
0.80537474 0.5 2.6661475
1.6301637 0.5 1.422866
1.5133032 0.5 -2.7836466
0.78294599 0.5 1.1027471
2.9284687 0.5 -1.9655883
0.54496121 0.5 -0.33999264
2.7324309 0.5 2.8358109
2.1788323 0.5 -1.4154084
2.1329663 0.5 0.069690317
1.0318937 0.5 1.9228172
1.1423889 0.5 -0.79934359
0.8641786 0.5 1.0023584
2.0499003 0.5 0.67142963
1.8696057 0.5 0.23899646
2.7885616 0.5 0.20557776
1.9265519 0.5 -1.1933252
2.2098792 0.5 -0.021587279
2.0730548 0.5 -1.4371678
0.75256175 0.5 -1.5980365
0.81063706 0.5 0.092215873
2.4129848 0.5 -1.952845
0.57910436 0.5 -2.1696706
1.4144031 0.5 0.60245979
1.9739277 0.5 -2.3747842
2.1730914 0.5 1.0612712
2.3444064 0.5 -2.8017118
0.83884394 0.5 -1.2210692
0.85683334 0.5 1.6550256
2.0544732 0.5 1.0485414
0.88617021 0.5 1.0803298
0.96301675 0.5 1.8829849
2.5903876 0.5 -0.12265433
1.8984463 0.5 -0.22220418
2.400496 0.5 1.9652809
1.879483 0.5 -0.45463157
2.7638757 0.5 -0.65584451
2.5986354 0.5 -2.9089124
1.1161932 0.5 -1.049646
2.4953811 0.5 -2.4934537
0.86916566 0.5 1.3100258
1.7694405 0.5 2.4221797
0.83859456 0.5 -0.62925881
0.94080651 0.5 -2.9336216
1.1259767 0.5 1.0066978
2.7637107 0.5 -1.0874836
0.64257032 0.5 -0.38155708
1.1891074 0.5 -0.082243226
1.1132011 0.5 0.21112938
1.9879061 0.5 -2.2053833
1.5657841 0.5 1.6630414
2.6574724 0.5 1.6763197
2.1759555 0.5 1.198063
2.7003376 0.5 -2.3979418
2.6450224 0.5 2.8784161
0.9839372 0.5 2.0142698
1.8901736 0.5 0.8667745
2.2081378 0.5 2.2376418
2.2766738 0.5 -1.3479407
2.452615 0.5 -2.8526969
1.7904344 0.5 -1.800452
0.67630225 0.5 -2.2715356
2.0732353 0.5 0.1489328
0.57162112 0.5 -1.5552976
2.569906 0.5 -0.71283448
2.468586 0.5 2.5868242
1.6471442 0.5 1.6318983
2.3694563 0.5 -1.5039012
1.7341577 0.5 2.1117456
2.8574417 0.5 1.5050771
2.734689 0.5 2.1773496
1.7350658 0.5 2.4385889
1.1280122 0.5 -1.7109748
1.2521229 0.5 -0.62376601
2.5482042 0.5 -2.110584
0.64223295 0.5 -1.1781268
2.7979198 0.5 1.913878
1.657835 0.5 1.6993945
2.9110861 0.5 -0.61691958
2.1708739 0.5 1.8775828
0.92510486 0.5 1.6867672
2.7395627 0.5 -1.7075143
2.2717204 0.5 -0.61614382
1.1975327 0.5 2.6107187
1.7173377 0.5 -1.0891806
0.97615772 0.5 1.9299458
1.9579301 0.5 -1.147284
1.0528284 0.5 2.60797
2.4689906 0.5 -2.5496449
2.9830902 0.5 -2.32025
2.0477424 0.5 1.7724819
0.95338178 0.5 2.7067928
2.3763103 0.5 1.3947182
2.8897636 0.5 0.98519105
2.5653625 0.5 -0.033508949
0.97301286 0.5 -2.2525065
2.581301 0.5 -1.2290077
1.037371 0.5 -1.5949109
0.71067935 0.5 1.8541174
2.8353834 0.5 1.1183726
2.2689252 0.5 0.89275354
1.2459935 0.5 -0.35460997
1.0016541 0.5 -1.9425308
2.1639192 0.5 1.3674908
2.9849119 0.5 -2.2532561
0.51283592 0.5 0.71041054
2.3899245 0.5 -0.91708124
0.91409773 0.5 1.7871461
2.2431901 0.5 -2.0199995
1.2882879 0.5 2.2325611
2.2202652 0.5 -1.3024137
2.9642262 0.5 -0.91632438
0.75973463 0.5 -2.7818074
2.3785102 0.5 -1.5150069
1.018086 0.5 -2.7266412
2.8957992 0.5 1.505891
0.98780805 0.5 2.782702
1.7520424 0.5 1.7043583
0.74133074 0.5 0.87882984
2.4246635 0.5 2.8557615
1.7851312 0.5 -0.95540351
2.870476 0.5 -2.9502375
1.1340796 0.5 2.5470567
0.95225245 0.5 1.1405789
2.2147582 0.5 -2.7159953
1.9869592 0.5 1.3068148
0.74186838 0.5 -2.1655438
0.56078672 0.5 -0.52119017
1.9810853 0.5 0.96866465
2.7134435 0.5 2.3620846
2.5932448 0.5 -2.8198225
0.88941437 0.5 -0.23463228
0.84794575 0.5 -0.96112341
2.9704931 0.5 -0.94182688
1.4209753 0.5 1.5442334
1.1843048 0.5 -2.0215991
2.2733171 0.5 0.084334381
1.577937 0.5 -2.6495206
2.0122621 0.5 2.5043037
2.8194826 0.5 1.6686831
2.2878866 0.5 2.3752201
2.1377387 0.5 2.9263279
2.3332655 0.5 -1.2383313
0.63420182 0.5 -0.093037657
1.4190576 0.5 -1.0054538
2.7059188 0.5 -0.70222121
1.8905846 0.5 -0.68923062
1.9608632 0.5 0.74918413
1.6687971 0.5 -2.5864401
1.2557168 0.5 1.0798281
2.646286 0.5 -2.0851099
2.1256361 0.5 0.55768913
2.0642426 0.5 2.4478033
0.59618545 0.5 -1.3025087
0.67371678 0.5 1.2623848
1.511595 0.5 -2.0434265
2.0967793 0.5 1.952449
2.6711383 0.5 0.15499562
0.79545832 0.5 0.17225684
2.950825 0.5 2.9728973
1.3506817 0.5 -1.9190015
0.58827335 0.5 -2.8303921
1.0530143 0.5 -2.9417017
0.59285021 0.5 0.21405339
1.6782742 0.5 -1.5892742
2.7302616 0.5 -2.6115973
1.933117 0.5 2.3026221
1.0601579 0.5 0.74668288
1.1893209 0.5 -0.5933001
1.3328682 0.5 1.3467774
1.3102826 0.5 -1.6757981
2.9094505 0.5 0.9555819
2.7681108 0.5 -2.112457
2.7195289 0.5 -0.38475451
2.8979065 0.5 -1.8655123
1.7223017 0.5 1.560184
1.3986329 0.5 -0.17099093
0.81748468 0.5 -1.3871638
1.4397204 0.5 -2.9578865
1.9341371 0.5 1.4695994
0.55645168 0.5 -1.0021302
1.9529501 0.5 -0.64058906
2.7492683 0.5 -0.94266504
2.009649 0.5 1.3561614
2.3302779 0.5 -0.18358666
1.3848714 0.5 1.6873258
2.6850247 0.5 -1.9108055
2.827517 0.5 2.8064744
1.4834869 0.5 1.5293287
1.4483924 0.5 1.2516247
2.6730585 0.5 1.9462599
1.008167 0.5 2.5322356
1.5419912 0.5 -2.8399444
2.3275454 0.5 -2.8110876
0.95767993 0.5 -2.6597188
1.1106688 0.5 0.97511196
2.5167737 0.5 -0.36886469
1.6091115 0.5 -0.14359905
1.4478403 0.5 1.0459979
2.722281 0.5 -0.66936135
1.2653015 0.5 0.36046678
2.8871846 0.5 1.7951124
2.497381 0.5 -2.92888
2.3640013 0.5 2.8742263
2.2065742 0.5 2.0159063
1.9230064 0.5 2.2194321
2.7355998 0.5 -2.0449874
0.54298693 0.5 1.6635633
0.66265279 0.5 2.4623234
1.5343177 0.5 -1.3991544
2.0921187 0.5 2.9436557
2.3925078 0.5 2.0979574
1.3884348 0.5 2.5026484
1.329168 0.5 -2.1003942
1.2243567 0.5 -2.2473557
2.9042788 0.5 -0.1271199
2.2538054 0.5 -0.42701241
1.4579614 0.5 -2.0578387
2.8442643 0.5 1.8260735
2.3962002 0.5 1.2610453
1.0621623 0.5 1.614379
1.0152086 0.5 1.8323343
2.7635064 0.5 -1.4471468
2.3490467 0.5 -0.29876071
1.5993752 0.5 -1.1982636
0.97217166 0.5 -0.80537438
1.0781049 0.5 0.095204644
1.4339486 0.5 -2.4366193
0.6488142 0.5 -1.9732171
2.1705422 0.5 -2.7509964
0.72141331 0.5 2.4393182
2.0667291 0.5 1.3986492
1.0936744 0.5 1.4241019
2.2996299 0.5 2.4445562
2.5485973 0.5 -1.3342385
1.0471504 0.5 -0.10905521
1.7182957 0.5 -0.98843831
1.7976328 0.5 0.017375192
1.3281488 0.5 -1.8594291
2.9724965 0.5 -2.9769232
2.7649934 0.5 -1.7690122
2.2977586 0.5 1.1793514
0.96329945 0.5 0.30589834
2.1500511 0.5 -1.6513013
1.6871814 0.5 -1.3159544
2.7990468 0.5 1.5472137
2.8899262 0.5 -2.4721987
1.2136247 0.5 -1.5179222
1.228104 0.5 -0.74222255
2.7776282 0.5 -1.9711736
2.7583976 0.5 0.46582061
1.7325745 0.5 -0.84054267
2.7153673 0.5 1.9276739
2.9702828 0.5 2.1743612
1.8463671 0.5 -1.8793653
2.9429958 0.5 2.2409496
1.7323406 0.5 1.0644889
1.2925061 0.5 -1.4451876
2.5574412 0.5 2.819665
0.67596 0.5 1.1611381
2.3186047 0.5 2.2206032
2.7067885 0.5 -2.4373789
0.90724075 0.5 0.21011372
2.5136356 0.5 -2.9629099
1.8256034 0.5 1.1403236
0.89174116 0.5 2.0765934
2.7591991 0.5 -2.8807747
1.1462734 0.5 -1.5413055
2.3505964 0.5 1.0755612
2.2003171 0.5 0.34297079
0.66793215 0.5 2.3204575
2.518435 0.5 2.7770338
2.0495839 0.5 2.8920507
2.2246788 0.5 2.9714072
2.1937704 0.5 1.6664039
0.64403999 0.5 0.29299569
2.3745346 0.5 -0.39839607
2.2751801 0.5 1.4548038
1.0596014 0.5 1.980141
1.9559025 0.5 -2.7166302
2.2417114 0.5 -2.6354451
1.675426 0.5 2.2024062
1.4896208 0.5 -2.2580559
1.3996632 0.5 1.7300688
1.3758358 0.5 -2.7928057
2.7645059 0.5 -1.3256319
0.50866884 0.5 2.5694971
0.84066558 0.5 -1.5888903
2.0530021 0.5 -2.8289993
1.2031195 0.5 -0.10948854
0.96697807 0.5 0.59149647
0.66318232 0.5 0.49562627
2.4985209 0.5 -2.2592568
1.8802341 0.5 -0.092501827
0.82195807 0.5 -2.9582713
0.6492961 0.5 2.9968886
1.7539893 0.5 -2.2849474
1.3952368 0.5 -0.70322245
2.7193122 0.5 2.7930193
2.5768113 0.5 0.62989897
2.668052 0.5 0.55683237
0.66096556 0.5 -1.8942771
1.0739875 0.5 1.4192668
2.9567015 0.5 -2.0238523
0.53378636 0.5 0.67944086
2.9990122 0.5 -2.0524364
2.9964194 0.5 0.43583435
2.4005423 0.5 2.2280309
2.9865611 0.5 -2.8838303
2.8140771 0.5 -1.3833729
0.83899295 0.5 0.44328925
1.3030199 0.5 -2.6990244
2.8815842 0.5 -1.3529844
1.5643065 0.5 -1.6632254
0.75085014 0.5 -2.3598161
1.3170508 0.5 -0.23556203
0.52741444 0.5 -2.6160951
0.89060968 0.5 -0.070912495
2.7473023 0.5 -0.18890437
2.6504941 0.5 2.7990699
1.3033048 0.5 2.0108979
1.6727124 0.5 -1.4158844
1.4218994 0.5 1.5096558
2.5493865 0.5 1.5514691
1.4354076 0.5 1.633826
0.90192097 0.5 1.7149978
1.0982227 0.5 -1.7918729
0.77830201 0.5 1.1493987
0.83739573 0.5 0.49079776
0.99481606 0.5 2.6090894
0.82737434 0.5 -2.1341727
2.5031226 0.5 -2.6228797
1.1830261 0.5 -2.9694877
2.4410727 0.5 -1.5932636
1.2339636 0.5 0.51805961
2.5954852 0.5 -0.42331666
1.5246501 0.5 -0.361471
0.51787746 0.5 0.76835698
1.4757097 0.5 -0.87200564
1.8847078 0.5 0.55624723
1.558949 0.5 1.2044545
0.83742613 0.5 -0.25991678
0.52315915 0.5 0.4216584
2.9977322 0.5 0.04266382
1.825452 0.5 -0.78615838
2.2571683 0.5 -2.0119581
2.6099322 0.5 -0.95562518
2.9111581 0.5 -0.23325457
1.0514555 0.5 2.9157588
1.7781268 0.5 0.19204234
2.2416661 0.5 -0.86117506
0.74537826 0.5 0.93405479
0.96197557 0.5 -1.8265659
1.3133576 0.5 -2.0483642
1.3489108 0.5 0.15091875
2.0040429 0.5 0.76805574
1.1806746 0.5 -2.6147728
1.9770288 0.5 1.4829429
2.1714077 0.5 1.5219646
2.1012068 0.5 -0.22263557
2.2612419 0.5 0.19404529
2.9788878 0.5 0.57036632
1.2572669 0.5 -0.97447836
2.7794051 0.5 1.375869
1.9863752 0.5 -0.36780211
2.1121409 0.5 1.4683371
2.7521873 0.5 -2.1007907
2.4311647 0.5 2.6266339
1.1669505 0.5 -0.81422353
2.4352543 0.5 -0.53556538
2.620784 0.5 -2.3469067
2.7824883 0.5 -1.4527019
0.75779361 0.5 -1.1128678
1.5698589 0.5 1.7490628
2.7164164 0.5 0.40395063
0.52291822 0.5 -0.86368984
1.7465326 0.5 2.1402385
0.99719137 0.5 2.1892219
0.68605292 0.5 1.2438945
1.3645725 0.5 -2.220015
1.810877 0.5 2.3096261
1.2666326 0.5 2.3739026
2.4772174 0.5 -0.34689936
0.90460736 0.5 -1.0551822
2.3621597 0.5 -0.54711533
2.6987853 0.5 -1.9736174
0.91852671 0.5 -0.10274418
2.7020588 0.5 0.5492686
2.0264103 0.5 1.7961336
0.562989 0.5 2.3653038
2.4130015 0.5 2.4794147
1.8376899 0.5 2.3325114
1.315942 0.5 -2.4949608
1.6050249 0.5 0.94124061
2.4843433 0.5 2.0472202
2.9402728 0.5 0.18070191
2.084954 0.5 2.8100226
2.1705742 0.5 -0.035972752
2.628298 0.5 0.48518652
1.6250759 0.5 -1.9718872
1.0961624 0.5 -2.0316405
0.66234124 0.5 0.011352718
2.6061008 0.5 -0.36372602
2.1852348 0.5 1.2016282
2.9696019 0.5 -1.2741219
2.1756189 0.5 -0.98515785
2.3262038 0.5 -1.1984259
2.1678891 0.5 -1.0541644
2.1978664 0.5 2.7415955
2.6021886 0.5 -1.5046132
1.745428 0.5 -2.5632329
0.93846172 0.5 -2.2270803
0.94792229 0.5 2.8700583
1.2510273 0.5 -1.8390661
2.2523842 0.5 -0.18928608
0.81415236 0.5 -1.4678334
1.6351172 0.5 -1.6483256
2.6338055 0.5 0.83350664
1.0122758 0.5 -2.5726452
0.79693866 0.5 -2.661875
2.0507829 0.5 0.46649981
1.6868104 0.5 -1.465934
1.0427107 0.5 1.9926891
0.93442589 0.5 -1.5417261
2.4669809 0.5 -1.0542853
2.6247194 0.5 -2.5775871
1.3479139 0.5 -0.2923336
2.7215185 0.5 -0.0085471319
0.91610736 0.5 -1.7622005
0.55997843 0.5 -0.038480144
2.7782078 0.5 2.8092735
0.66695756 0.5 -0.10622072
1.8885692 0.5 0.94067478
1.0491436 0.5 -2.6763616
2.3339152 0.5 -0.51490939
