# .PCD v0.7 - Point Cloud Data file format
VERSION 0.7
FIELDS x y z
SIZE 4 4 4
TYPE F F F
COUNT 1 1 1
WIDTH 1886
HEIGHT 1
VIEWPOINT 0 0 0 1 0 0 0
POINTS 1886
DATA ascii
-1.4993201 0.36698404 3
0.12966737 0.10094926 3
-2.5213006 0.37218612 3
-2.5651536 0.48530483 3
2.7499456 -0.24464925 3
2.5825016 -0.38751253 3
-0.077559173 -0.33492869 3
-0.36665088 0.21199065 3
-2.3729672 0.0093871644 3
0.71919626 0.32351652 3
-0.29794928 0.034568902 3
-1.6571605 0.34776732 3
-2.8153684 0.27743322 3
0.66653925 -0.032954924 3
2.1857672 0.263446 3
-2.8265653 0.23639819 3
0.32646814 0.28369454 3
-2.1367307 -0.21436019 3
-1.8174821 0.38296381 3
1.612817 0.3136248 3
1.9388863 -0.1376759 3
1.5360227 0.058253985 3
0.23108661 0.04570134 3
1.7828199 0.37619743 3
0.16730931 0.025825409 3
1.6026181 -0.28978667 3
-2.9346883 0.14912379 3
2.4208896 0.49594846 3
-0.32283953 -0.1608669 3
1.8255311 -0.4301087 3
0.24492523 0.35237828 3
-1.5474573 0.18950553 3
2.330806 -0.1698011 3
2.7330992 0.22558737 3
-0.79402936 -0.2025488 3
2.0247583 0.26244915 3
-1.9927298 0.20107667 3
0.85462165 0.47914642 3
-0.64197224 -0.021215333 3
0.3606025 -0.15069936 3
2.5563107 0.10413877 3
-1.6805294 0.32619959 3
1.2266238 0.4482463 3
-1.3634738 0.43316332 3
-0.80406904 -0.19574407 3
-1.5925522 0.45970625 3
-0.038491301 -0.23732567 3
1.1498547 -0.01508372 3
-1.251153 -0.49926257 3
2.6936917 -0.40104017 3
2.1252632 0.19528292 3
-0.3598915 -0.14082344 3
-1.5761175 -0.47044188 3
0.068748027 -0.40053236 3
2.4664183 -0.084388852 3
-0.15529841 0.22040638 3
-1.3121704 0.22302228 3
0.2707867 0.32102957 3
2.8400936 0.48079783 3
-0.86855257 -0.22732428 3
-2.7491326 -0.43555662 3
-0.7674855 -0.48751998 3
2.8436823 -0.14169611 3
1.0282885 -0.23423867 3
-0.49062875 0.057720158 3
-0.48794049 0.026244232 3
-2.3703735 -0.088003203 3
-0.77197993 -0.44726601 3
0.078561641 -0.056498852 3
1.3134699 0.17999183 3
0.69556612 0.19268878 3
1.1027426 -0.17738558 3
-2.3051302 -0.39246446 3
0.68313295 -0.020184159 3
2.5545044 0.048738755 3
-2.5410891 -0.14126615 3
-2.2729647 0.077616297 3
1.450703 0.29059777 3
-0.47577628 0.14502063 3
-2.4612839 -0.02864835 3
0.34507173 0.25991422 3
2.038929 -0.18028519 3
-2.3297143 0.31998631 3
-1.3501724 0.248409 3
0.95410484 0.20159526 3
-0.50180048 0.25851282 3
2.8528776 -0.42601594 3
-1.355638 0.18009602 3
-2.2546625 -0.45481908 3
-1.3206515 -0.48117083 3
-2.1847692 0.42019486 3
-1.5744576 -0.1930131 3
-2.9677749 0.3222284 3
-2.3208086 0.24119204 3
-2.9056482 0.24797465 3
-0.73123348 0.49366602 3
-2.2084851 -0.21324793 3
-0.50153613 0.19658375 3
2.9734554 -0.036874499 3
1.7122949 -0.17941259 3
-0.7469759 -0.35827422 3
-0.4942933 -0.37357843 3
1.6000453 -0.27687129 3
-0.29774246 0.38619581 3
-1.3141344 -0.0058940584 3
1.763175 -0.25032932 3
-1.9155385 0.047423903 3
-0.10254848 0.38465056 3
1.3708649 -0.15288481 3
2.0543461 0.37751663 3
-0.888098 -0.49761173 3
-2.5495512 0.11534469 3
-2.8995078 0.44655934 3
-1.9422994 0.06655217 3
-2.9045546 -0.24761191 3
2.0448754 -0.14277126 3
2.2511234 -0.38014975 3
1.9327159 0.32664353 3
-2.4723256 -0.16777574 3
-1.248377 0.48092708 3
-2.4261551 -0.4684279 3
0.74625045 0.37104872 -3
-0.89373684 0.10965139 -3
1.5055387 0.059058763 -3
0.28847238 0.34368864 -3
-1.1812493 -0.3403337 -3
-2.9675245 0.44590864 -3
1.7473793 0.39396438 -3
2.1259329 0.42366478 -3
2.384234 0.087164752 -3
-2.4802449 0.036097176 -3
2.6954329 -0.29040763 -3
0.20618674 -0.36751559 -3
-1.8265705 -0.34016851 -3
-1.2957525 -0.0016661116 -3
-1.2774773 0.2027777 -3
1.5481365 -0.045932245 -3
-2.5269361 -0.20172355 -3
1.9794788 0.49882743 -3
1.99786 0.2764695 -3
-2.5399878 0.09858045 -3
2.1110063 0.026775546 -3
-1.3489566 0.074981786 -3
-2.5444329 -0.0049739848 -3
-2.4252117 -0.33748996 -3
-1.1040193 0.1598881 -3
1.6622053 -0.29306832 -3
2.6877034 -0.47735199 -3
-1.2811372 -0.099041544 -3
0.088088289 0.13315041 -3
0.92555249 0.17724644 -3
-2.91535 -0.26042578 -3
-1.39876 -0.21545158 -3
-0.82277536 0.43104625 -3
0.20433134 0.024174312 -3
1.7619141 0.35328764 -3
-0.46475232 -0.07253249 -3
0.46887755 -0.33164757 -3
2.4828906 -0.31073588 -3
-1.1466867 -0.28980038 -3
-1.0144644 -0.34137097 -3
2.28355 0.22037005 -3
2.9791906 -0.39665267 -3
1.476424 -0.29735935 -3
-1.2136168 -0.41566947 -3
0.45344841 0.012820741 -3
-1.5372665 -0.38909659 -3
2.3683097 -0.37156662 -3
-1.1048937 0.3700023 -3
2.9121292 0.47938749 -3
-2.0095003 0.27207077 -3
-0.75588292 -0.40451676 -3
2.6359317 -0.1086657 -3
0.40501991 0.004286522 -3
-2.6702585 0.27103993 -3
0.43368047 -0.40355703 -3
-2.1332653 -0.32116964 -3
2.1835899 0.32278568 -3
-1.0595839 -0.27983579 -3
-0.98571932 0.13082777 -3
0.027232818 0.1185052 -3
2.1658795 0.39575654 -3
0.097048998 -0.14578433 -3
-1.8564183 -0.34488395 -3
-1.937404 0.0058462946 -3
-2.7996643 0.38568074 -3
2.5409305 -0.44578585 -3
2.0992143 0.19138347 -3
-1.8966424 -0.42644998 -3
-2.5960824 -0.48310995 -3
-2.9340179 -0.037310138 -3
1.069414 0.46335328 -3
-0.28948593 -0.18796869 -3
1.7869892 -0.15806641 -3
-1.4349955 -0.30909491 -3
-1.082795 -0.44344282 -3
1.8622022 0.17365991 -3
-1.152596 0.19190264 -3
-1.713985 0.47950834 -3
-0.66844112 -0.46503615 -3
2.472367 -0.17451288 -3
1.3599255 0.43121269 -3
2.6185892 0.054855149 -3
1.4447156 -0.11347029 -3
2.2091448 -0.29420036 -3
-2.6634004 0.24139243 -3
1.2918947 0.19346404 -3
-0.98257428 -0.48637712 -3
-1.8690304 -0.28571633 -3
-2.9608157 0.0039794832 -3
2.7434194 -0.046798188 -3
0.34279567 -0.24917546 -3
2.684392 -0.48561352 -3
0.17687301 -0.12086295 -3
2.6874404 -0.071517244 -3
2.8369632 -0.18749268 -3
1.3127062 -0.32249156 -3
1.140828 -0.14215448 -3
2.3118341 -0.34539708 -3
-2.0953269 0.3677617 -3
0.8276903 0.18791854 -3
-0.48228711 -0.41222182 -3
-0.73865086 -0.13995701 -3
0.24980067 -0.38026792 -3
1.8039522 0.47267148 -3
-0.17538323 -0.13817127 -3
1.8226719 0.35697451 -3
-0.4688454 0.44961959 -3
0.46866861 0.38351649 -3
-2.6779177 -0.18678053 -3
1.6768644 0.16536377 -3
0.92512345 -0.081528664 -3
1.4903471 -0.44564265 -3
-1.0141568 -0.19215795 -3
-0.4042936 0.12580456 -3
-1.643212 0.36161244 -3
1.2777739 0.010472719 -3
-0.24520355 0.22871003 -3
0.1439447 0.1414555 -3
2.6382329 -0.13302396 -3
-1.6631058 0.46571842 -3
-0.97488308 0.4190152 -3
1.242053 -0.37538594 -3
-0.72146356 -0.33285761 -3
-2.8927639 0.49248815 -3
-0.24350135 0.34333923 -3
-0.69163185 -0.24275236 -3
-1.2466733 -0.24307416 -3
2.7266576 0.43117365 -3
2.2000139 0.34678623 -3
-2.3700516 0.054555301 -3
2.7550232 -0.34845877 -3
-1.3844593 -0.46429247 -3
-0.37287062 -0.33590111 -3
-1.7545584 -0.23239455 -3
-2.726579 0.48516852 -3
1.1055678 -0.02579619 -3
1.5991861 -0.12460808 -3
0.56852758 -0.17679217 -3
-0.39945763 -0.49522302 -3
-2.1971872 0.06864626 -3
1.602883 -0.10576005 -3
-2.899205 0.059778873 -3
-1.88174 0.34650338 -3
2.7677372 -0.048814908 -3
1.469292 -0.38936016 -3
2.1155181 0.39356175 -3
0.54841954 -0.21648212 -3
2.0898015 -0.3859441 -3
1.1380545 -0.17502098 -3
-1.9791526 0.11050725 -3
1.6784834 0.14136672 -3
1.9758613 0.46885726 -3
2.1816278 -0.41382882 -3
-2.5462184 -0.13535361 -3
-1.1770519 0.47337413 -3
-0.82178468 -0.15992297 -3
2.1061344 0.49951646 -3
-0.41846272 -0.32436326 -3
0.40220606 0.090527758 -3
-0.93546963 -0.47053677 -3
-2.5056148 -0.23570719 -3
-1.1505369 -0.35774517 -3
1.3373793 0.43240702 -3
-1.1426252 0.18650053 -3
2.5636437 0.22234108 -3
1.7762442 -0.34650874 -3
-0.074605852 0.25941959 -3
2.9785292 0.18786213 -3
-0.6859318 0.25599614 -3
1.7677809 0.19400959 -3
-2.6691637 0.37738737 -3
1.3124797 -0.17675807 -3
1.4994293 0.14303829 -3
2.6748209 0.4090206 -3
2.5595012 -0.12658371 -3
2.3903794 0.33702901 -3
-1.428091 -0.31879666 -3
-1.2405989 -0.050172031 -3
0.83533722 0.28692526 -3
2.9486837 -0.0039900574 -3
2.1766949 0.28729776 -3
0.81945223 -0.26682374 -3
-2.1885514 -0.48616394 -3
-1.2471198 -0.27587366 -3
-2.497309 -0.47851381 -3
0.64485949 -0.27461174 -3
-2.7374713 -0.10466895 -3
-0.15132202 0.18904471 -3
-1.5341241 0.19658877 -3
-1.035965 0.45542163 -3
-2.1409199 0.30057451 -3
1.5886713 0.010541745 -3
-1.0267111 -0.30398133 -3
-0.10644829 -0.025294553 -3
0.84078062 0.42167914 -3
-1.4317352 0.05335325 -3
0.52239799 0.3865726 -3
1.2801273 0.29714653 -3
-1.7014788 -0.13484779 -3
-1.0450153 0.22935507 -3
0.80667049 0.12388283 -3
0.67157692 -0.12617308 -3
1.6748453 -0.41741002 -3
-0.95145655 -0.012073282 -3
1.3242317 0.0053695845 -3
-1.4438407 -0.0042343414 -3
2.401423 -0.072578311 -3
-1.7068299 0.41969413 -3
-2.0116186 0.0711032 -3
1.156526 -0.19925883 -3
-1.4707711 -0.48965862 -3
-0.5245927 -0.14934704 -3
2.4022667 -0.24219723 -3
2.7433963 0.16523786 -3
2.3130822 0.43187627 -3
-0.23849721 0.088902093 -3
-2.3708839 -0.32221854 -3
-2.1436894 -0.059796859 -3
0.82887733 -0.0061146757 -3
0.30712432 -0.033715744 -3
-1.8610699 0.092583098 -3
0.13406728 0.12488095 -3
-2.9738228 -0.077843606 -3
-2.4499655 0.41040596 -3
-1.960506 -0.39137655 -3
-1.5246112 0.28644264 -3
0.0037734616 -0.11782644 -3
2.6881142 -0.0033814728 -3
-2.5647309 -0.025608389 -3
-2.1227131 0.35765794 -3
1.2434793 -0.38480932 -3
-0.61348355 0.41904908 -3
-0.16703859 -0.11303081 -3
1.5695944 0.17418975 -3
-1.1521846 0.31404427 -3
2.6613503 -0.39824712 -3
-2.4803419 0.32081324 -3
-0.446069 -0.11659848 -3
0.68383646 0.39716554 -3
-1.7797383 -0.14521825 -3
0.75984144 -0.10640445 -3
0.94633508 0.15046729 -3
-0.4356623 -0.48980305 -3
-1.6916239 0.38718227 -3
1.871434 -0.46250346 -3
-2.3188002 -0.16784187 -3
-0.48305839 0.21665943 -3
2.2873321 -0.20159557 -3
-0.72076041 -0.39610156 -3
0.53156537 -0.12760252 -3
-0.066482574 -0.17737336 -3
0.032734271 -0.48834538 -3
-1.635307 -0.20361185 -3
-0.17970476 0.15945727 -3
2.6187668 -0.48759329 -3
1.4279662 -0.3255454 -3
2.9831336 -0.13597035 -3
1.609295 -0.24698776 -3
2.2858706 0.072313994 -3
2.9335005 0.20379551 -3
0.069049284 0.42048576 -3
1.6731665 0.15191953 -3
2.7363584 -0.033005357 -3
-1.9722103 0.05217522 -3
-0.4811863 0.41167375 -3
-2.7103107 0.12770979 -3
0.49813586 -0.21913101 -3
-1.564099 0.33340734 -3
-1.9820032 -0.3136504 -3
2.0030169 0.32451719 -3
0.6304965 -0.48394999 -3
1.2964398 0.25967509 -3
-1.3456247 0.14468455 -3
1.9800622 0.0086860983 -3
2.8345089 -0.48497242 -3
-0.90446174 0.0052926885 -3
-0.43363714 0.090272464 -3
1.707078 -0.19600488 -3
1.6338731 -0.3233802 -3
-1.2964804 0.28465647 -3
-1.5264249 -0.11634008 -3
1.2104123 0.49744755 -3
2.1170597 -0.40725482 -3
1.8047984 0.48466441 -3
-1.3889436 0.27918157 -3
2.9383593 0.40559933 -3
0.93084788 0.25042418 -3
-1.8722091 0.31157225 -3
-2.78653 0.15085353 -3
-0.31763101 -0.34031057 -3
-0.7843262 -0.40936869 -3
0.96067744 0.30459332 -3
-2.8138201 0.40760708 -3
-0.3537682 0.22073527 -3
0.2531158 -0.085324071 -3
-0.037440643 0.42065981 -3
-1.9488518 0.13681886 -3
1.3188865 0.28352892 -3
1.348169 0.28205621 -3
0.52158457 -0.27641124 -3
1.0225468 0.01459733 -3
2.9833484 -0.44348851 -3
-1.2389523 -0.39363152 -3
2.5542533 -0.18339394 -3
-2.3148282 0.12826468 -3
1.7840533 0.45615456 -3
-0.62814748 0.40684479 -3
1.9491619 0.24752279 -3
-2.2036459 0.2246706 -3
-2.9847164 -0.40390977 -3
1.1818303 -0.41667691 -3
0.67099571 0.37319815 -3
-2.5217018 -0.1032564 -3
2.4795387 0.23966292 -3
1.7857305 0.20956971 -3
1.9785823 -0.11776684 -3
-1.3152757 0.061537109 -3
0.063579448 -0.4206101 -3
1.5779289 0.33024889 -3
-2.6241472 -0.37245807 -3
-1.2294593 -0.075267367 -3
0.21075267 -0.136114 -3
2.7686279 0.45522925 -3
1.8166572 0.48823974 -3
2.4926012 -0.23865415 -3
0.091342308 0.1335984 -3
2.9793074 0.15303265 -3
1.0037659 0.29155061 -3
0.0072311223 -0.49037051 -3
-1.0904895 0.36907783 -3
-2.8330095 0.43438792 -3
2.3838189 0.29693326 -3
2.8344269 0.23876682 -3
-1.1691099 -0.26584008 -3
2.0172751 0.12531202 -3
-2.6661806 0.37571105 -3
1.7020833 0.48189926 -3
-2.9553964 -0.10861503 -3
1.0517049 0.23967876 -3
2.7937834 -0.385324 -3
0.43319654 -0.42566329 -3
-2.9787362 0.45845398 -3
-0.6622566 0.33617538 -3
0.0037716413 -0.00030815694 -3
-0.46780801 0.24973798 -3
1.9991069 0.035268407 -3
2.4081357 -0.081055917 -3
-1.8693551 -0.30502161 -3
0.54282439 -0.15080969 -3
2.5331299 -0.41959533 -3
1.1581781 -0.087303951 -3
-2.805943 -0.47796747 -3
-0.41891709 0.11615925 -3
0.51635069 0.41147262 -3
-2.558249 -0.35440093 -3
2.7534506 -0.1216926 -3
-2.3406451 -0.13630594 -3
2.2905958 0.34486023 -3
-1.870032 -0.26845393 -3
-0.1186576 0.3249543 -3
-2.8447609 0.49259979 -3
-0.55524725 -0.047599677 -3
2.3796055 0.25685003 -3
0.36853918 0.40488854 -3
0.90626955 -0.26382649 -3
0.58257443 0.10760652 -3
0.24510522 0.18809687 -3
-0.73489094 0.15022291 -3
-2.7249885 -0.15679392 -3
-0.28137049 0.065621972 -3
0.63836533 0.29900536 -3
1.2060878 -0.11934811 -3
-1.4705302 0.38487044 -3
2.9511678 -0.25095183 -3
2.2112246 0.093339317 -3
-2.7125993 0.087627888 -3
-2.3183095 -0.45297053 -3
2.6928926 0.37677601 -3
2.0463872 0.22302705 -3
2.2780516 0.39413872 -3
-1.3532985 0.4669477 -3
1.6289169 0.25012326 -3
0.94168943 0.13104279 -3
-0.52214891 -0.015312695 -3
-2.7785549 -0.40668976 -3
2.9212544 0.46711752 -3
2.7554829 0.37001944 -3
-0.19511837 -0.46368602 -3
0.25900397 -0.47548059 -3
0.89119965 -0.45467702 -3
-0.41439858 -0.41452962 -3
-1.8263429 -0.129501 -3
-2.3887532 0.17939085 -3
-1.9179392 -0.21294153 -3
2.0199177 0.11782607 -3
-2.0827146 -0.12724216 -3
0.072874919 -0.2049399 -3
1.9699595 0.4661606 -3
-1.4720204 0.053484265 -3
-1.8631951 -0.3172102 -3
-1.3150562 -0.093659312 -3
0.85865653 0.31773624 -3
-2.3373709 -0.34893504 -3
-0.10244641 -0.12696734 -3
-0.47339964 -0.18989931 -3
-2.9491451 -0.30461955 -3
0.22050072 -0.28658813 -3
0.24653444 0.055940665 -3
0.60239625 -0.29909766 -3
2.737205 -0.22327116 -3
-0.31437734 0.08244352 -3
-0.29030028 -0.098690845 -3
0.24790868 -0.034509845 -3
-2.6679006 -0.26970321 -3
-1.1833991 0.32868281 -3
-0.96053803 0.49858737 -3
0.2053408 -0.0039978465 -3
2.4871137 -0.33618692 -3
-1.7968512 -0.036385797 -3
-0.76824772 0.47514188 -3
2.5420008 -0.20220169 -3
2.0926867 0.34971708 -3
-0.16917746 -0.28433657 -3
-0.37814036 -0.44877496 -3
-0.48365378 -0.087671138 -3
-1.0802509 0.46204308 -3
2.0549307 0.32737556 -3
-0.80103314 0.13988917 -3
-1.8730152 0.42548922 -3
1.8839746 -0.2069646 -3
-2.7216372 -0.030477911 -3
-1.6453506 -0.11387645 -3
-2.5921543 0.34996197 -3
0.75243378 0.091584519 -3
1.8626035 -0.43842384 -3
1.3288653 -0.0011117926 -3
2.5224233 -0.19459704 -3
1.2108438 0.076591611 -3
2.3571768 -0.17204309 -3
0.51793438 0.021921953 -3
2.9248028 -0.13041562 -3
1.1033338 -0.080766849 -3
-0.8457613 0.43826237 -3
-0.58502227 0.39608449 -3
2.1958511 -0.25230721 -3
-2.953459 0.22319598 -3
-2.6158099 -0.052193854 -3
1.0869516 0.040638819 -3
2.6759984 -0.28149849 -3
2.3583274 -0.12421162 -3
2.2887361 0.39645255 -3
-0.011088884 0.49686733 -3
2.2993114 0.43560579 -3
-0.46843997 -0.26056769 -3
-0.32424507 -0.036332369 -3
-2.321264 0.40382516 -3
1.4881537 0.46276578 -3
0.28553396 -0.17509496 -3
-0.89670837 -0.40800479 -3
-2.1845074 0.019122856 -3
-0.92427987 -0.12276486 -3
0.68118256 0.24616162 -3
1.1765646 -0.40277073 -3
2.156791 -0.41584852 -3
2.9515173 0.24857098 -3
-2.7935503 -0.46855357 -3
2.9712808 -0.26634264 -3
1.6885829 -0.10660113 -3
-1.4411649 -0.16759709 -3
0.67619115 0.02129584 -3
1.1775162 -0.39176404 -3
1.3839747 0.16320868 -3
-1.1173612 0.26209056 -3
-2.0126736 -0.26686168 -3
0.64321494 -0.18995705 -3
-1.9120188 0.32411009 -3
0.15554492 -0.41258851 -3
-2.4327953 0.44741529 -3
-2.1477056 0.15743646 -3
0.88075131 0.31119537 -3
-1.3945488 0.48483732 -3
1.8235803 0.39852944 -3
-1.7094197 -0.2997655 -3
-2.3102679 0.16243704 -3
0.69349658 -0.049591485 -3
0.05345941 -0.12276722 -3
-2.0171165 -0.45547417 -3
-0.60509294 -0.31599671 -3
2.0397327 -0.401144 -3
0.31519803 0.055018041 -3
-2.3289595 -0.44100937 -3
2.8719549 0.18417338 -3
1.0708318 -0.11529054 -3
-1.3846298 0.054242674 -3
-0.10956866 0.049935691 -3
1.6583183 0.45238388 -3
1.0005985 0.26022735 -3
0.91920781 -0.056735724 -3
-1.0201735 0.31456578 -3
-0.60714912 -0.24292997 -3
-1.3950242 -0.46704534 -3
-0.57766956 -0.030233391 -3
0.18602918 0.23364997 -3
2.6766088 -0.42373309 -3
-0.23737025 0.33216733 -3
-2.995235 0.23412423 -3
-2.3198891 -0.31792283 -3
0.2845751 -0.26750317 -3
2.5144398 -0.2432089 -3
1.535019 0.12989125 -3
-2.1216681 -0.094232626 -3
0.29745027 -0.41258076 -3
-1.2115569 0.28189975 -3
0.80190688 0.37036675 -3
-0.38828403 -0.0081389938 -3
-1.4948542 0.3920764 -3
-0.061143894 -0.18356721 -3
2.4523656 -0.052868538 -3
-1.061998 -0.06205181 -3
0.99040127 0.31571147 -3
1.3162839 -0.06812501 -3
0.68181133 0.37333113 -3
0.76068801 -0.29049242 -3
0.94267356 0.044139355 -3
1.9071249 0.43333009 -3
0.2469901 0.48892069 -3
-0.79979861 0.4447394 -3
-0.15363041 0.16535968 -3
2.1483724 0.098017529 -3
1.0318587 0.15004653 -3
-2.1169126 -0.17468147 -3
0.73864657 -0.17723393 -3
-2.6791644 0.16754363 -3
-0.5805757 0.20585708 -3
-1.244621 -0.028429031 -3
2.466284 -0.47802764 -3
2.5636404 -0.2408067 -3
-0.28436279 0.3980076 -3
-1.988353 -0.41014358 -3
-1.7490594 -0.39546183 -3
1.1876491 0.22572969 -3
-1.3168188 0.02476652 -3
-0.49309954 0.15994856 -3
-1.4819056 0.26233998 -3
-1.2841281 0.27350748 -3
2.3639996 0.16162769 -3
1.465225 -0.179892 -3
0.95489264 -0.27375135 -3
-0.83015579 0.15179442 -3
2.5864069 0.28473577 -3
-1.378539 0.0064816694 -3
-0.49596298 0.1509984 -3
-1.6318101 -0.058096971 -3
0.5761258 0.39136034 -3
1.7489755 -0.37593919 -3
0.879637 -0.307735 -3
0.8950296 -0.14279458 -3
-0.81654209 -0.093490526 -3
-2.2332878 -0.34258759 -3
2.2127631 0.25155699 -3
-2.5085511 0.30673045 -3
-0.17627171 0.35433796 -3
-1.6160588 0.27151924 -3
2.2798064 -0.20091477 -3
0.23270182 -0.10937876 -3
1.6274381 -0.040720824 -3
-1.8170489 -0.09832947 -3
-2.2613664 -0.31239754 -3
0.95724249 0.30909911 -3
-1.9033128 -0.0097935721 -3
-2.3622854 -0.0025112261 -3
2.1634023 -0.30282125 -3
-0.282812 -0.074224666 -3
-0.69041568 0.46182933 -3
-2.9895234 0.089546084 -3
2.4602716 -0.17013456 -3
-0.12642969 0.25850469 -3
-0.85602427 -0.42485234 -3
-0.29766652 -0.31006685 -3
-0.78473735 0.3095288 -3
0.15052855 0.49629989 -3
-2.9921937 0.058068126 -3
-0.10972816 -0.37210116 -3
0.29734698 0.49791896 -3
0.12881631 -0.40891984 -3
0.14833163 -0.20052503 -3
-1.5668145 0.48451117 -3
0.74087989 -0.069850199 -3
1.0667607 0.28872544 -3
0.14567587 0.17344527 -3
-2.9664466 -0.47090062 -3
0.52669293 0.11459506 -3
-1.3514595 -0.27339163 -3
-2.1437228 0.32429823 -3
2.9070513 -0.010348179 -3
0.61709607 0.2565566 -3
-0.8780908 0.4571352 -3
2.3524537 -0.21319512 -3
1.0567613 -0.43044904 -3
-0.91749203 -0.37316057 -3
-0.41135401 0.12812379 -3
0.72281331 -0.044268981 -3
1.5673883 0.21296598 -3
0.8088932 0.1447235 -3
0.088827886 -0.45179176 -3
-1.394635 -0.29336369 -3
2.0944958 -0.17247507 -3
1.6131408 -0.38015658 -3
-1.1531272 0.26326191 -3
2.764214 0.41763419 -3
-2.1728883 0.08601445 -3
0.60073662 0.27812758 -3
1.99558 0.021807693 -3
-2.3694375 0.47360185 -3
0.23390454 0.24598686 -3
-1.1502753 -0.14525668 -3
0.80654263 0.19655718 -3
1.296297 -0.31705984 -3
1.4687493 0.075161144 -3
-0.80287355 0.45984173 -3
0.49924856 -0.031444717 -3
-1.7809248 -0.22210324 -3
0.90674078 -0.14364579 -3
0.56540114 -0.22673644 -3
1.1845264 0.32378343 -3
-0.22490996 0.49166813 -3
-0.26350537 -0.12719086 -3
2.5207081 -0.14413872 -3
-0.41209221 0.48144045 -3
1.0837799 0.20130774 -3
1.0298028 -0.17458948 -3
0.80313605 0.49452463 -3
-1.9477172 0.24474767 -3
2.7549078 -0.14438108 -3
-1.8194705 -0.18079868 -3
-2.1516273 0.2266892 -3
0.0031250697 0.29278943 -3
2.4700401 -0.012904299 -3
2.0343041 0.34917447 -3
0.53291816 -0.30418378 -3
-0.97204262 -0.27554378 -3
1.7120836 -0.12422726 -3
1.1489807 -0.31195545 -3
0.77978009 -0.47738791 -3
-1.4806458 0.31163502 -3
1.5856469 0.2417548 -3
0.072198644 0.076231837 -3
-2.60777 -0.01429204 -3
-2.5760825 0.21779384 -3
1.2585639 -0.30328667 -3
0.88228226 -0.45135877 -3
-0.92332053 -0.40749457 -3
1.1935438 0.059108712 -3
-0.26201364 0.066523582 -3
2.3507566 0.15655485 -3
0.13902622 0.42305651 -3
2.7640963 -0.16721243 -3
-2.8972287 -0.071700774 -3
0.51444715 0.4069289 -3
-2.7108371 0.14028901 -3
-0.20131844 -0.11392856 -3
-0.0015673279 -0.13292406 -3
-1.9392453 -0.21847506 -3
-2.7619548 0.2988967 -3
-1.6942916 -0.091451846 -3
2.6196492 0.39517188 -3
-1.1172729 0.26197734 -3
-0.69914532 -0.28874847 -3
0.6099844 0.2272993 -3
-0.49877501 -0.49397928 -3
-0.89821362 0.25271532 -3
-2.1239154 -0.031036578 -3
0.10632695 -0.40162119 -3
-1.7138463 0.47667876 -3
-0.59336287 0.10987152 -3
0.84553474 -0.36549532 -3
-1.8077821 -0.34451181 -3
-2.7181079 -0.2907629 -3
-0.30567229 -0.21274835 -3
0.57054168 -0.041299094 -3
2.1976402 0.067140803 -3
-1.4382801 0.12376759 -3
-1.694854 0.054025192 -3
0.7935546 0.16598465 -3
-0.073890857 0.31798229 -3
2.093925 -0.068053402 -3
0.91334075 -0.30486414 -3
0.14751999 0.36012518 -3
1.7345011 -0.042774409 -3
-2.8265133 -0.36740404 -3
2.4010868 -0.17695935 -3
-2.0456984 -0.46599635 -3
-2.1206424 -0.31859803 -3
2.356343 0.1023608 -3
-1.004719 -0.29226103 -3
1.5203291 -0.082899839 -3
0.47791311 0.071268588 -3
1.7532974 -0.30429894 -3
2.1606112 0.2248376 -3
-1.9452137 0.05431648 -3
-2.8488755 0.38007063 -3
-1.5573955 -0.41248372 -3
2.3379381 0.11905891 -3
2.1427858 0.18551627 -3
-1.9657979 0.48752087 -3
1.172745 0.31224662 -3
-1.6384687 0.25661093 -3
1.3675089 0.27492312 -3
-1.1030515 0.070267148 -3
-0.82455087 -0.37042692 -3
-1.1249738 0.17012607 -3
1.1486673 -0.48140976 -3
-0.67456323 0.13892679 -3
-1.564503 0.36344403 -3
-2.9295456 0.13110901 -3
2.5858943 -0.41890648 -3
-0.36615515 -0.058232155 -3
2.831547 0.22553252 -3
-2.5088694 0.20404673 -3
-1.5078055 0.128667 -3
0.92632276 -0.17161283 -3
-1.3126031 0.44896623 -3
-0.93067116 -0.42320055 -3
2.9166443 0.20091857 -3
1.9876839 0.24558423 -3
-1.1268588 -0.46262527 -3
2.2006519 -0.21554413 -3
2.1127708 -0.48180437 -3
-0.67082947 0.42165321 -3
1.1308444 0.037596911 -3
2.7041681 -0.42968017 -3
-1.817427 -0.4839353 -3
2.3384969 0.4373903 -3
-1.2038176 -0.18351397 -3
0.40012535 -0.18548784 -3
-1.4596153 -0.42533162 -3
1.9242563 -0.18564624 -3
1.3056256 0.35276937 -3
-1.1042438 0.105101 -3
2.4782898 0.12113029 -3
-1.9113348 -0.38035709 -3
2.7512169 -0.086603656 -3
2.7775748 -0.44403976 -3
-2.636302 -0.061272491 -3
-1.2981373 0.26927653 -3
2.8209713 0.10225943 -3
2.4269729 0.14114763 -3
-1.7783803 0.12034158 -3
1.9247911 -0.13414457 -3
-0.38741827 -0.3045584 -3
-2.9570382 0.23369722 -3
0.70781714 0.19231647 -3
0.25133064 -0.26828623 -3
0.5018335 0.16625284 -3
-0.4674364 -0.30567816 -3
0.41807035 0.48925528 -3
-2.5603106 -0.16981156 -3
2.0648885 0.018786984 -3
1.3378086 0.26921117 -3
-0.28472343 -0.17526338 -3
2.5387239 0.10139268 -3
-1.8845714 -0.49489394 -3
0.4502759 0.26630408 -3
-1.3595511 0.035201274 -3
2.2737553 -0.14459839 -3
-1.0762968 0.060095061 -3
-2.4952176 -0.24328855 -3
1.7450032 -0.052665833 -3
2.1726091 -0.22071408 -3
-2.5302241 -0.068198085 -3
-0.09708073 -0.14147438 -3
-0.54036915 -0.39608225 -3
-2.2901309 -0.19212802 -3
1.2243961 0.46342221 -3
0.48917589 -0.083259091 -3
-0.75157607 -0.086317711 -3
1.7399006 0.16356097 -3
0.13583879 -0.20843746 -3
0.39756733 0.28159189 -3
-0.15952499 -0.12534349 -3
1.3101287 -0.4693473 -3
0.41816747 0.042356417 -3
0.83688152 0.02358708 -3
1.5692426 0.25210714 -3
-2.5016193 -0.26321131 -3
-0.88456297 0.4783963 -3
-1.9293638 0.37001112 -3
2.6259739 -0.25642413 -3
1.8769567 0.078437932 -3
0.95124549 0.033744588 -3
1.4784591 -0.062764108 -3
1.0034187 -0.059474159 -3
-1.3832362 0.023749402 -3
-1.7660056 -0.091654912 -3
1.5728033 -0.46404302 -3
2.7421238 0.35581335 -3
2.6774313 -0.15236747 -3
-0.33027375 -0.40280065 -3
1.4606624 0.30940577 -3
1.6826161 -0.49485323 -3
1.1493925 0.38894188 -3
-0.12448988 -0.10179459 -3
2.6535771 0.48267841 -3
1.7178286 0.16913028 -3
-1.6364583 0.33732283 -3
-0.045658953 0.12924415 -3
1.2341294 0.16173375 -3
1.8451792 -0.49709964 -3
1.0511374 -0.48499498 -3
-2.1998301 -0.47882009 -3
-0.91576314 -0.20818469 -3
-1.7999417 0.17147532 -3
-1.1928765 0.40052199 -3
1.4935298 0.45747614 -3
-2.8104963 -0.44073415 -3
1.654781 -0.27504119 -3
1.9432517 0.14692432 -3
2.0809543 -0.4994148 -3
0.52345753 -0.43838489 -3
0.50948691 0.45996651 -3
0.71195018 0.4901498 -3
-2.3415277 0.32218987 -3
-0.4010148 -0.1346166 -3
1.2045467 -0.29361904 -3
1.0181638 0.21514669 -3
0.3977266 0.015972627 -3
-2.5329661 0.040763881 -3
0.38530642 0.29080272 -3
-2.1673133 0.050456088 -3
-1.3714707 0.11014418 -3
-0.81341982 -0.13804688 -3
-0.92651141 0.36096081 -3
2.2332556 -0.34063223 -3
-1.7440139 -0.092027739 -3
1.8657743 0.21990548 -3
-0.80113208 -0.058056213 -3
-1.7499644 0.2462144 -3
-2.8869495 0.31565341 -3
-0.60671622 -0.45305598 -3
-2.3121974 -0.079650477 -3
-2.3407454 0.19607256 -3
1.6613255 -0.39362323 -3
2.5253515 0.46303007 -3
0.74542165 0.049154852 -3
-0.77759153 -0.43613684 -3
-0.91036713 0.22748508 -3
1.2329433 -0.0083851647 -3
-2.9673469 -0.3484323 -3
-0.049910076 -0.065475307 -3
1.9956311 -0.37305588 -3
0.43576372 -0.30791107 -3
2.1430335 -0.11276189 -3
0.91461104 0.097527675 -3
-1.8041339 -0.057010248 -3
-0.033322793 0.097036332 -3
-0.92058629 -0.38479367 -3
2.939841 0.44695532 -3
-2.4562051 0.076075792 -3
0.9365828 -0.17885904 -3
-1.4463166 -4.0191459e-05 -3
2.043118 0.19765095 -3
2.5354838 0.1473882 -3
1.9203397 0.42824602 -3
1.139359 0.13523707 -3
1.5798521 -0.0024453495 -3
2.4132214 -0.15467103 -3
2.775048 -0.071570069 -3
-0.75090593 -0.097048692 -3
1.0150688 -0.1068793 -3
-0.2961652 0.019893181 -3
-2.9921522 -0.34290516 -3
-1.5670735 0.36845186 -3
0.36200774 0.19716381 -3
2.6965101 0.020838901 -3
1.1121894 -0.11548711 -3
0.98411536 0.27618653 -3
0.043412779 -0.42495611 -3
-0.824 -0.42601383 -3
-2.3579311 0.32461056 -3
1.4823673 0.17865501 -3
0.38375777 0.26993403 -3
1.3659219 0.42530432 -3
-2.2990913 0.22353442 -3
1.5199635 0.38039851 -3
2.2967207 0.31715906 -3
1.5012236 0.15614551 -3
0.072551027 -0.29735985 -3
1.0429109 -0.066548891 -3
2.1110022 -0.25115609 -3
-0.7635352 -0.49250588 -3
1.3035113 -0.057638917 -3
1.2945676 -0.23114185 -3
1.4603523 -0.11866819 -3
1.7488426 -0.1367884 -3
-1.5334187 0.062718652 -3
-2.4609787 -0.16716637 -3
-2.7945027 0.34148413 -3
0.56869745 0.10344411 -3
0.30018181 -0.28261393 -3
-0.59472269 0.36433962 -3
-0.37234011 0.33610845 -3
-1.546929 0.15709604 -3
-2.4422705 -0.44277954 -3
2.0944934 -0.079205029 -3
0.16961025 0.40783903 -3
1.5280751 -0.43508607 -3
1.0341971 -0.070501044 -3
1.3887347 0.11399911 -3
2.5070908 -0.14704292 -3
2.5380263 0.18906124 -3
0.14372188 -0.14725773 -3
-1.4507201 -0.18786858 -3
0.88291156 -0.39310634 -3
0.64194459 0.2065406 -3
-0.27535447 0.050843563 -3
-1.2712938 -0.070860662 -3
-0.68970138 -0.30540073 -3
-0.13225517 -0.36800414 -3
-0.75781649 -0.41903207 -3
-1.4503477 0.13814448 -3
1.2156495 -0.29070765 -3
2.1566594 -0.088955954 -3
1.6457393 0.18268384 -3
1.8278531 -0.11590295 -3
-2.8286886 0.45754707 -3
2.4945939 0.039486788 -3
2.0448782 -0.41015783 -3
-0.39251685 -0.47141421 -3
-0.47731888 0.077626742 -3
-1.5562207 0.34433204 -3
1.8382933 0.01983219 -3
1.6833624 -0.030616824 -3
0.34223288 -0.24549909 -3
-1.8822905 -0.014872882 -3
-1.4610283 -0.23706579 -3
2.8399982 0.076951914 -3
-2.8236113 -0.49188259 -3
-1.9269681 0.263632 -3
-2.179383 0.23856796 -3
2.5151958 -0.39579934 -3
-1.5440921 0.44904259 -3
2.5577059 0.22559187 -3
-2.3336773 0.47871321 -3
1.026826 0.41516545 -3
1.2614627 -0.37171152 -3
-1.4595759 0.1589487 -3
2.5128462 0.25028402 -3
1.0002087 0.31424513 -3
1.7242908 0.49511388 -3
-1.3632194 -0.38345516 -3
1.1001805 -0.47842869 -3
-2.5070009 -0.49624065 -3
1.8038532 0.1594824 -3
-0.019774115 0.15039799 -3
-1.2956866 0.26011041 -3
0.28059223 -0.30669937 -3
-2.0258598 0.0478133 -3
0.13511403 -0.18099599 -3
-1.7606208 -0.060383506 -3
-0.31811297 0.33934757 -3
2.5474577 0.39756584 -3
-1.9035664 0.34997538 -3
-2.691875 0.41585809 -3
-1.106648 -0.3295584 -3
-0.14622432 0.086931176 -3
1.8518407 0.25277215 -3
2.564111 0.31334722 -3
-2.2186787 0.33403167 -3
0.90914845 0.22222807 -3
1.6773683 -0.0019946538 -3
-1.0937353 0.22361842 -3
-0.84246123 0.38881519 -3
2.5832908 -0.21167065 -3
1.4620411 0.34126553 -3
1.6655906 -0.15139604 -3
1.8438452 0.44173431 -3
-1.3021516 -0.42761809 -3
1.4169949 -0.22479382 -3
-2.0847929 -0.28518561 -3
-0.0095342183 0.1526566 -3
0.89848292 0.17132613 -3
1.9726202 -0.064446039 -3
-1.0032266 -0.25374672 -3
-1.2076187 -0.43334424 -3
-2.1566606 0.41488165 -3
1.7434504 -0.01406429 -3
0.52852631 0.12591623 -3
2.839504 -0.021814277 -3
0.85740048 0.016418518 -3
1.2343925 0.078038611 -3
1.7802398 0.3474485 -3
0.16359816 0.41627145 -3
-0.85053045 -0.48231903 -3
-2.8249714 0.070370696 -3
1.7737992 -0.14859305 -3
-2.8491585 0.3918817 -3
2.1812866 0.089429952 -3
-2.9349887 0.44221637 -3
2.9955235 -0.28384784 -3
-0.42274567 0.41323003 -3
0.1876343 0.5 -0.867257
-2.3515942 0.5 0.36610362
2.4672027 0.5 2.7386966
2.2801061 0.5 -0.02292018
-1.5397884 0.5 1.8770715
-1.5643114 0.5 0.19000566
-0.26835883 0.5 1.7189564
-0.093808383 0.5 -1.9643806
-0.57163084 0.5 0.29404849
-1.1211189 0.5 -1.0486183
-1.9178141 0.5 -2.9046829
2.8773019 0.5 -2.6593125
-0.48710287 0.5 2.8918674
-0.066753693 0.5 0.61124891
-1.9749658 0.5 -1.026217
0.52854174 0.5 -2.3502169
2.8222353 0.5 -1.0233976
-0.30441746 0.5 1.5316758
2.8593309 0.5 0.42015165
-1.3639615 0.5 -1.1537231
-1.6158482 0.5 -0.90247852
-1.1274636 0.5 -2.0177145
-0.84393263 0.5 2.1712034
-0.03452915 0.5 2.472647
1.1656857 0.5 0.80011868
-2.5680604 0.5 -0.69233465
0.76815295 0.5 -2.1640241
-1.1919504 0.5 0.98317873
1.3633378 0.5 -1.4904006
0.39938468 0.5 -2.5932307
0.55204648 0.5 2.6157918
0.28585455 0.5 -0.44334012
-2.5844831 0.5 -2.9216433
-0.57525331 0.5 1.5799347
1.7264642 0.5 -0.4755207
-1.0617062 0.5 -2.7262132
-0.34435675 0.5 -1.9158454
1.7247288 0.5 -1.9870588
-0.27351037 0.5 -2.8633509
0.69128901 0.5 -2.010905
1.5501499 0.5 -2.4283156
-2.5465262 0.5 -0.46880949
-1.7522092 0.5 1.1914049
2.4030297 0.5 2.2389593
2.134232 0.5 0.49112782
2.6638808 0.5 -0.13573621
-1.081037 0.5 -0.49675608
-0.30577829 0.5 2.0480981
-1.4402095 0.5 -0.98133147
2.484664 0.5 -2.259726
2.3944712 0.5 1.0507885
1.3687491 0.5 -1.5448872
1.4445525 0.5 -1.3619421
1.5142016 0.5 -1.0458245
-1.4967654 0.5 1.3675647
-1.0502418 0.5 -0.658472
-1.8920765 0.5 0.47718689
0.089944415 0.5 -2.6136136
0.1880438 0.5 1.2819164
0.95415002 0.5 -2.0597742
1.8628186 0.5 0.50713605
1.9193944 0.5 2.9722588
0.095541231 0.5 -2.2187035
1.7554862 0.5 -0.63623422
-1.5169789 0.5 -2.0243032
0.85033399 0.5 -1.0913389
2.3023188 0.5 -2.5951707
2.2000589 0.5 -2.6551716
2.0766609 0.5 1.4398978
1.7152681 0.5 1.4122149
-2.7519801 0.5 2.9565923
0.50809389 0.5 -2.1550291
-1.7062477 0.5 0.6319961
-2.8172491 0.5 0.5949595
1.0965903 0.5 2.3760369
-1.845075 0.5 1.3595266
2.1935158 0.5 -1.917791
-1.211581 0.5 2.7195935
-0.96092433 0.5 -2.4710274
0.26901242 0.5 -0.49409097
-2.8053889 0.5 1.5318419
2.8494222 0.5 -1.7422057
-2.3169317 0.5 1.2426616
0.14945085 0.5 -2.0837424
-2.4016125 0.5 0.25175077
1.3315394 0.5 -1.5767546
-2.6475301 0.5 -0.76148188
-2.6738386 0.5 1.8918025
2.38166 0.5 2.1018655
-2.5504458 0.5 -0.17709447
-1.9623137 0.5 -0.029384039
1.0219443 0.5 -1.4547313
-0.11465993 0.5 -1.0367503
1.6778263 0.5 -0.73866302
-0.66128707 0.5 1.2418987
-2.7557178 0.5 2.8143532
0.55734563 0.5 -1.3684598
2.7602899 0.5 1.9751688
2.9653103 0.5 -0.83436817
-1.1176794 0.5 -1.4108113
0.99558157 0.5 -2.6785386
-2.0610666 0.5 -0.9987641
-1.9173465 0.5 -0.05747959
-2.3743639 0.5 -0.81044191
1.7880517 0.5 -0.039500922
-0.72445589 0.5 0.27094528
1.0192227 0.5 -1.6770208
-0.39441293 0.5 0.36924136
2.535394 0.5 -1.0634023
0.46498156 0.5 -1.3188144
-1.3028291 0.5 -1.0553923
1.2481269 0.5 0.60890251
1.0447358 0.5 -1.5845202
2.6630733 0.5 2.4589579
2.960779 0.5 -2.8191979
-1.2238108 0.5 -1.7451864
-0.23621929 0.5 2.3556652
-1.8707552 0.5 0.083528876
-2.0507736 0.5 -0.85077733
-0.0047552395 0.5 -0.33507901
2.1080832 0.5 -2.8186827
0.77506477 0.5 2.4534523
-0.41361934 0.5 1.0910356
2.4610896 0.5 -2.3966348
-2.6448109 0.5 -0.39850977
2.4267795 0.5 -1.6891503
-1.6209598 0.5 -1.7764534
0.99960744 0.5 2.6752059
-1.0311317 0.5 -1.8788471
1.7715294 0.5 -2.5420401
0.60494983 0.5 0.82257891
0.46929789 0.5 -2.7633483
1.9715135 0.5 -1.6296747
0.64389676 0.5 2.8758459
2.8587525 0.5 -0.89057153
0.76383185 0.5 -0.96605068
0.059666324 0.5 0.60115999
-1.1771973 0.5 -1.0163445
-0.77627599 0.5 -1.8481867
-2.0581372 0.5 1.3596826
-1.7733932 0.5 2.4279437
-0.30818233 0.5 1.6821465
0.95608902 0.5 -1.0252949
-0.13849556 0.5 -0.51488435
1.8362435 0.5 -2.0293577
1.2592446 0.5 1.7955881
-1.8846257 0.5 -0.28109449
-2.2553098 0.5 1.9724134
1.6301345 0.5 -0.4459931
-0.70414662 0.5 2.1052516
-1.7008576 0.5 -0.38015646
2.1218922 0.5 2.0375152
-2.0110853 0.5 -0.97157663
1.1125749 0.5 2.3058503
0.41093963 0.5 0.9399634
-1.2277219 0.5 0.69495267
-1.3127338 0.5 1.7961731
-0.26908532 0.5 0.67711598
1.0319713 0.5 -0.80929607
1.9523133 0.5 -1.1119993
0.91368389 0.5 1.2337283
1.8507407 0.5 2.0234594
-0.12652339 0.5 1.9279299
-2.8757997 0.5 1.2121016
-0.76382828 0.5 -0.20541376
-0.90969938 0.5 -0.0028564925
1.9398022 0.5 2.0955341
-0.65896374 0.5 1.855514
-2.2911093 0.5 0.59890646
0.6288209 0.5 0.40353033
-2.5857887 0.5 -2.1095896
-1.9543427 0.5 -0.65012181
0.32996586 0.5 -0.75108457
1.7380654 0.5 -0.18133585
1.5660937 0.5 -1.569983
2.4844034 0.5 0.79770499
0.51473933 0.5 -2.9173627
1.0189774 0.5 1.8989044
2.6523533 0.5 0.06635461
-1.3301852 0.5 1.3248669
-1.5720119 0.5 -2.8998163
-2.8298926 0.5 0.98794484
2.3580222 0.5 0.62104356
-2.9834249 0.5 -0.61793816
-2.8153601 0.5 -1.6417246
0.85619378 0.5 -1.4391036
-1.549123 0.5 -2.115243
2.2219346 0.5 1.5394593
2.5160613 0.5 -1.1040241
1.5204278 0.5 0.74193996
-1.6498967 0.5 2.7208755
-2.7817321 0.5 -2.1314862
-0.87411445 0.5 0.43142962
-1.3138397 0.5 -2.2388551
0.37599152 0.5 -2.7422712
1.7942079 0.5 -0.39187285
2.7210062 0.5 0.65622294
-0.58786571 0.5 2.1198838
-2.7611465 0.5 -0.87108427
-2.1795731 0.5 -2.1399708
-0.77578104 0.5 1.7839956
1.4419338 0.5 -1.9525836
2.3769488 0.5 1.4158514
-2.9765851 0.5 2.481426
0.30362111 0.5 0.93902516
-1.5358118 0.5 0.12924932
1.8996685 0.5 -0.8398369
-1.0029039 0.5 1.1329287
-2.5512083 0.5 -0.86830574
-0.93977517 0.5 -2.8110671
1.5157439 0.5 -1.4878808
-0.034642689 0.5 -1.1899202
-1.1069556 0.5 -1.2297506
2.1878543 0.5 0.9397257
2.3593335 0.5 2.166764
1.7593703 0.5 2.1409225
0.21661721 0.5 -2.3037202
2.8301175 0.5 -1.4731165
0.3417058 0.5 2.8381903
-0.93030417 0.5 0.71461225
-0.15705572 0.5 1.6800274
0.30336282 0.5 -0.43243292
-1.3993156 0.5 0.024933835
-2.89889 0.5 -1.4692644
2.1750846 0.5 -1.2718995
2.8877721 0.5 0.35106343
-2.7060134 0.5 -0.60582638
1.2173641 0.5 -2.6735773
-0.2648015 0.5 0.71932995
-0.97335774 0.5 0.23086064
-0.75095987 0.5 2.5313594
-2.4216509 0.5 0.7653569
-1.7736086 0.5 0.60193753
-1.7822725 0.5 1.8908585
-1.1422547 0.5 -2.1246033
0.81712347 0.5 0.73403853
0.15178552 0.5 -1.6500893
-2.6051314 0.5 0.49781671
2.1367443 0.5 -1.005941
1.0297999 0.5 -0.15513062
0.80855435 0.5 1.4647892
1.7100691 0.5 1.0791126
2.8523324 0.5 2.2119424
-2.0018969 0.5 1.7513809
1.3993496 0.5 -0.27882561
-2.2824202 0.5 1.360572
0.80581838 0.5 -2.9775596
1.1378109 0.5 -1.6390268
0.88975847 0.5 -1.537192
-0.45946345 0.5 -2.4521513
2.8200207 0.5 0.9812519
-1.6100749 0.5 -0.97559971
0.134103 0.5 1.0139053
2.0310676 0.5 -0.83568758
-1.7409903 0.5 -1.6725043
-0.94593751 0.5 -1.8251665
-0.41534692 0.5 -1.4355235
2.9786632 0.5 -1.1866063
-2.5517688 0.5 -1.6206012
1.900491 0.5 -1.171268
-0.85062623 0.5 -1.451117
1.5596505 0.5 -2.7185798
0.10005188 0.5 -0.17944199
-1.7026153 0.5 -2.8816855
2.366967 0.5 2.9927726
-2.2048838 0.5 -2.1443138
0.34723696 0.5 -2.9184961
-0.36111596 0.5 1.2823219
0.27493721 0.5 -1.0934361
-2.0202436 0.5 -2.1352284
-2.2031002 0.5 0.16628489
-1.319279 0.5 0.023677511
1.3651792 0.5 0.031876005
-1.1958288 0.5 -2.3267155
2.9411049 0.5 0.79079372
-0.33497545 0.5 -1.5139631
1.8065546 0.5 2.4445004
0.41941509 0.5 2.9470937
0.89439929 0.5 -0.52823061
0.16134882 0.5 -2.899924
-0.56835812 0.5 -2.096591
2.10799 0.5 -0.30725276
-0.66851789 0.5 -2.3513157
0.17116214 0.5 1.6134059
0.47267804 0.5 2.8045149
2.6376352 0.5 -0.51460832
-2.8649871 0.5 -2.7457128
-1.5947469 0.5 1.5528641
-2.5774369 0.5 0.92729205
-2.0727615 0.5 0.73452193
-2.3325913 0.5 -0.74477273
0.95111662 0.5 -1.4814702
-0.41608503 0.5 2.3158877
1.0375937 0.5 -0.58575463
-0.87333494 0.5 -0.92891693
-2.9771042 0.5 1.6311871
0.13123599 0.5 -1.2399681
-0.79302388 0.5 -1.9452769
-2.0603278 0.5 -2.6293688
-2.0482283 0.5 -1.435239
2.3968241 0.5 2.5180335
0.58162278 0.5 1.3369987
-0.43525544 0.5 -0.92303967
-1.7476966 0.5 -2.9669008
-2.1127057 0.5 1.0829301
0.18135886 0.5 -0.03134495
2.7182565 0.5 -2.2531309
-0.7715525 0.5 -1.2307978
-1.4394966 0.5 0.60279435
-0.85261935 0.5 0.47607705
1.2057087 0.5 -1.7002343
0.95334345 0.5 -1.8323381
-2.8740039 0.5 2.9717789
-2.943475 0.5 2.2970493
-2.6638374 0.5 1.428216
2.2385502 0.5 -0.60376656
0.40784502 0.5 -2.6991661
0.14635396 0.5 2.5483391
-1.5743599 0.5 -1.3054682
2.9157085 0.5 -2.5937526
0.05307436 0.5 2.8450751
2.5686555 0.5 -2.6582808
0.69230491 0.5 -2.6678832
0.74551052 0.5 -0.60890186
-1.4782106 0.5 -2.41382
0.48331118 0.5 -2.9766271
-0.2107325 0.5 1.5853745
-1.4199016 0.5 2.9161534
-0.74465865 0.5 -1.4695253
1.9033533 0.5 -2.5458071
2.2143028 0.5 2.5265133
2.4853399 0.5 -1.113169
-0.44348311 0.5 -2.588115
2.4891479 0.5 2.9844654
0.84683746 0.5 2.8263216
-2.7489669 0.5 -0.73971498
2.5037038 0.5 0.80693966
0.33704638 0.5 -1.0027153
2.566437 0.5 -2.5111625
0.66464376 0.5 0.015327489
-1.1513205 0.5 2.0349212
-2.1681845 0.5 0.34034893
0.58922642 0.5 2.2817612
2.9091456 0.5 0.83181882
-2.2307162 0.5 0.81990635
-1.9915054 0.5 2.119112
-2.3518503 0.5 0.60971951
2.2546062 0.5 1.1246209
0.22848941 0.5 1.0463952
2.1789286 0.5 2.411696
1.5534146 0.5 -0.10634833
1.714933 0.5 0.87540925
-2.5769258 0.5 0.51341206
0.5179373 0.5 0.1263735
1.2627985 0.5 2.8862815
-1.36114 0.5 -0.92333144
1.1704445 0.5 -0.98630333
-0.35647064 0.5 0.11752808
2.0914562 0.5 -0.37244523
-1.1620436 0.5 -1.7520387
-2.9431701 0.5 -2.3074002
-1.8979747 0.5 0.33089492
0.16986679 0.5 -0.67817795
1.228079 0.5 -0.12063619
-0.57123595 0.5 2.7478964
-1.5049388 0.5 -2.8375919
-0.08930099 0.5 -1.4027845
-1.4578915 0.5 -1.9903139
-2.4202738 0.5 -1.8621689
0.73148793 0.5 1.4790218
-2.4102404 0.5 2.4323614
0.75870913 0.5 -0.03684273
-0.6599372 0.5 2.2576516
-2.6501639 0.5 -2.7612712
2.3052804 0.5 -0.99080938
1.3188788 0.5 2.1642337
1.2788373 0.5 -2.0574012
0.21946639 0.5 2.91168
-2.6936226 0.5 0.26802605
1.8970391 0.5 1.7822767
0.089608006 0.5 1.7218523
0.13517198 0.5 2.4792366
-2.6471791 0.5 -0.2036245
-0.45116922 0.5 1.7052106
-0.39426064 0.5 0.74033177
-1.2990346 0.5 -0.24343377
-2.996053 0.5 -1.4449888
-0.81632859 0.5 1.4500684
1.2671942 0.5 -0.64570844
1.6550442 0.5 0.84281862
0.59499103 0.5 -2.2682815
0.41430125 0.5 -2.7761667
1.7361037 0.5 -1.4222889
1.1685102 0.5 1.0277954
-2.1771824 0.5 0.057655424
-2.7000499 0.5 0.89944768
-1.6796446 0.5 2.3696103
-1.6701012 0.5 1.6369122
-1.258872 0.5 -0.31125244
-1.8786856 0.5 2.4817352
0.60391778 0.5 -0.6499275
-2.5697467 0.5 -2.9369915
1.1505071 0.5 1.7404404
-1.5023706 0.5 1.8178012
-1.1850441 0.5 -0.5167039
-1.3998405 0.5 2.1202374
0.058809754 0.5 -1.3318858
2.518909 0.5 -2.5522847
1.7176452 0.5 1.8952549
-1.879935 0.5 -0.034321152
1.826893 0.5 0.88099921
1.4146495 0.5 -0.51127869
0.88621193 0.5 2.4548388
-0.18159866 0.5 1.9447649
1.006566 0.5 -2.1779039
1.0902717 0.5 -0.64830196
-1.9324006 0.5 -1.0953088
-1.375803 0.5 -0.84277767
-2.9043915 0.5 0.53195959
-1.4225773 0.5 -0.91873443
-2.0712209 0.5 -1.5948416
1.9486494 0.5 -2.493228
0.81625724 0.5 -0.48069054
0.40132007 0.5 1.7144459
-0.67254931 0.5 0.14605616
-0.93938464 0.5 2.2510483
2.7126107 0.5 2.162817
-0.82624626 0.5 -0.44397718
-0.45512459 0.5 2.1502864
2.5784254 0.5 2.3589895
-0.31464607 0.5 2.3012116
0.96867245 0.5 0.049686771
-0.82541215 0.5 0.68957412
1.1845767 0.5 -2.6085727
-2.7236304 0.5 2.0323753
-1.852941 0.5 -0.4473438
1.5151713 0.5 1.7118396
-1.2411448 0.5 -1.4882791
0.91050905 0.5 -2.2717569
1.8051481 0.5 0.52040327
-2.5171866 0.5 1.395357
1.1505998 0.5 1.5989507
2.7753196 0.5 1.4241071
0.10767865 0.5 -0.93632615
1.4690812 0.5 -2.7164466
0.7189948 0.5 1.2660166
-1.9942164 0.5 0.50868535
2.8592172 0.5 -0.42992494
2.2390659 0.5 0.078167289
2.829212 0.5 1.2638961
2.3084443 0.5 1.2327919
-1.5594538 0.5 -1.0389729
-1.8172837 0.5 2.7387609
1.9601451 0.5 -1.1657825
1.542551 0.5 -1.7537261
2.7035563 0.5 -0.77817225
-1.0089331 0.5 -2.332288
-2.5334575 0.5 -0.44267628
0.2841872 0.5 -1.2580247
-0.84458619 0.5 1.8721762
0.052416917 0.5 -2.1981487
2.6157146 0.5 2.9669235
2.038399 0.5 -2.560034
-0.90430075 0.5 0.68457764
-1.1945457 0.5 -2.7513788
0.61304981 0.5 -2.5699053
1.8695232 0.5 2.7408781
-0.12492743 0.5 2.3759794
0.22399127 0.5 2.1899064
1.9380591 0.5 0.99797136
-0.87747955 0.5 2.7184134
0.89621145 0.5 0.69501412
-0.41985667 0.5 -2.8187604
-0.64044791 0.5 -1.9301436
-0.21659558 0.5 2.2240806
0.28407598 0.5 -0.51886737
0.17418785 0.5 0.34777302
-1.8656036 0.5 -0.088704988
-1.9037497 0.5 1.5248635
-0.21010929 0.5 -1.8907183
-2.6662705 0.5 -1.6628724
-1.0981445 0.5 -2.8166895
2.2640378 0.5 1.6562631
-0.64082974 0.5 0.056180961
-1.8839042 0.5 -2.9272645
1.7496984 0.5 -0.49259093
2.8230879 0.5 -0.45340919
1.237332 0.5 -0.66316313
1.0536064 0.5 -1.2103209
-2.9190516 0.5 0.46649092
-0.067780301 0.5 1.7312031
1.2978845 0.5 1.5236276
2.1913381 0.5 -0.93129647
1.4668617 0.5 1.5944844
0.44134182 0.5 1.3231468
1.3920212 0.5 -2.5822763
1.3123456 0.5 1.5973784
1.8196077 0.5 0.41448665
1.1866233 0.5 -2.595998
-0.93307388 0.5 -2.6662965
-2.570518 0.5 1.0654484
2.0214803 0.5 2.3273294
1.7078266 0.5 1.1414962
-2.636786 0.5 -2.5454755
-1.5163698 0.5 2.1805289
-0.20672311 0.5 2.2233655
1.7407054 0.5 0.87785441
-2.9389894 0.5 -2.7981911
-1.141744 0.5 0.54688698
0.52357244 0.5 -2.6260467
0.52469242 0.5 -2.3312469
1.4913154 0.5 -1.1106101
-0.019576011 0.5 0.34366271
-2.8861547 0.5 -1.6196456
-1.3863919 0.5 1.3006392
-0.04165094 0.5 0.83488846
1.9624699 0.5 -1.3466194
-1.2559917 0.5 -1.7174413
-1.7402089 0.5 -1.9421626
2.9254105 0.5 0.23920934
-0.34391192 0.5 -0.17128561
0.14990029 0.5 -1.8569266
1.2884312 0.5 2.8616734
-1.2563961 0.5 -2.5134771
-2.0783372 0.5 2.7049081
1.8327625 0.5 -2.1150131
-2.4710379 0.5 0.80449551
1.1099485 0.5 2.3414347
1.6265769 0.5 -1.6839271
-1.3036516 0.5 -0.31276926
-0.69841921 0.5 0.92216498
0.8710044 0.5 2.1736813
-1.2957385 0.5 -0.28367051
-0.30093896 0.5 0.70147222
0.4558593 0.5 -2.1684251
2.5496726 0.5 -0.019668313
1.0225804 0.5 2.9527266
2.2444489 0.5 1.9183148
-0.4399384 0.5 1.8976833
-0.27612182 0.5 -1.2602844
-2.9499538 0.5 -1.7003613
0.94263846 0.5 -0.022869609
-0.90780115 0.5 2.9643056
0.70115465 0.5 -1.6337231
-1.6875693 0.5 -1.0499669
1.8519454 0.5 0.87488616
-2.8087616 0.5 0.6028266
0.84393388 0.5 1.6567436
0.40706587 0.5 1.0447805
2.7589383 0.5 2.7482021
-0.25894487 0.5 1.1242131
-2.6964817 0.5 2.6838346
1.3443859 0.5 -2.3160689
0.70208317 0.5 2.4882152
-2.9635246 0.5 -0.59572798
1.9541527 0.5 1.6013461
2.6095765 0.5 -0.71092296
-0.71377683 0.5 -0.035254125
0.17163275 0.5 -1.9328212
0.91740352 0.5 1.2521652
-2.3504572 0.5 -2.4581206
-0.75918925 0.5 -0.56338501
2.0373776 0.5 -1.5301722
0.41158459 0.5 0.35274881
-2.7776451 0.5 -2.3896756
-1.5227968 0.5 1.4641435
0.58439708 0.5 1.5625439
-2.0136204 0.5 -0.76359004
0.38294336 0.5 -1.4166179
2.1680465 0.5 1.8648463
-0.13911583 0.5 2.1969543
-0.52653694 0.5 -0.57186145
0.61337483 0.5 0.79560375
-2.386467 0.5 0.83060116
2.6567118 0.5 -1.4726646
-2.2078543 0.5 0.034409806
-2.4579654 0.5 0.73293018
0.43103048 0.5 -2.8314359
2.9927952 0.5 -1.1208467
-1.5780933 0.5 0.82351398
-1.6542453 0.5 1.3276397
-0.87886494 0.5 1.0115762
-1.5513859 0.5 2.2059093
1.7204956 0.5 -0.35003769
0.69134665 0.5 2.8044729
0.68074441 0.5 1.6925234
1.664299 0.5 -1.1928717
1.5060782 0.5 -2.4338603
0.63550341 0.5 -1.2010357
2.9197409 0.5 2.0499454
-1.6968528 0.5 -2.2303669
-0.49617344 0.5 1.5958092
-0.66337252 0.5 2.3098972
-1.0361909 0.5 -2.0176566
0.81579065 0.5 -2.9428821
2.2269139 0.5 -2.4821923
-0.13824254 0.5 -1.3767858
2.8958399 0.5 1.5291103
1.6825856 0.5 -2.010041
-0.33988202 0.5 -0.36627904
2.0061324 0.5 2.3473716
0.67859668 0.5 -2.7428129
-1.5755564 0.5 0.81625623
2.0624375 0.5 0.66488767
0.98167664 0.5 -2.2586634
-2.4684045 0.5 2.4702094
-1.5472512 0.5 0.32974905
2.0861008 0.5 2.8903878
0.37220424 0.5 1.1345564
0.60278738 0.5 -2.5451882
0.56306446 0.5 -2.980814
-0.65989304 0.5 -1.8261819
2.6873751 0.5 -2.5190864
1.8726193 0.5 0.3067697
0.46954623 0.5 -2.3070037
-1.3325468 0.5 0.64788032
-1.4351507 0.5 -2.7555521
-2.6598063 0.5 -1.2162818
2.6621847 0.5 2.8483725
-1.8427974 0.5 1.9636475
2.7593999 0.5 -0.68595213
-0.47202951 0.5 2.0518897
-1.6292405 0.5 -0.49722284
0.55628484 0.5 -1.6665385
-2.9275398 0.5 1.0293736
-0.72283071 0.5 -2.8102167
0.44275114 0.5 0.70709324
-1.3331436 0.5 -0.81572104
-1.1534745 0.5 2.7245626
-2.494395 0.5 2.5670798
0.13534576 0.5 1.085423
1.2094058 0.5 2.6830661
-1.1740518 0.5 -0.72429174
2.9580951 0.5 -2.281898
0.19309762 0.5 -2.6863949
-2.6597319 0.5 -2.6187847
2.0037892 0.5 2.4387105
1.1197999 0.5 -2.6218197
2.0700927 0.5 1.9467762
0.45920408 0.5 -1.4164441
-2.3422821 0.5 0.53013843
-2.6752443 0.5 -2.7012236
-2.8010275 0.5 -1.3945831
2.8897343 0.5 -0.27396575
0.35671541 0.5 -0.39170751
1.7184662 0.5 2.7316608
-0.72076994 0.5 -1.0680572
0.3082794 0.5 2.8132298
-1.6252371 0.5 -1.9509387
0.15540469 0.5 -1.1688232
-1.0397805 0.5 -2.4171915
0.5767743 0.5 -2.8230381
2.4038334 0.5 -2.4100051
0.2282729 0.5 -1.9108584
0.82010293 0.5 2.1290169
2.4634168 0.5 0.77894378
-2.285615 0.5 -2.3891354
-1.3820447 0.5 2.3974519
0.12136493 0.5 0.35133994
-1.505801 0.5 1.631629
0.38912377 0.5 2.0319338
-0.18329981 0.5 1.5664395
-0.92170775 0.5 2.1317852
2.6377032 0.5 -1.4737785
-2.6406112 0.5 -1.3643379
-1.4208723 0.5 -0.44448105
-2.5764334 0.5 -2.2403765
0.97019911 0.5 1.9918687
-1.9136394 0.5 -1.9767195
-1.9665948 0.5 0.10034198
-1.2386154 0.5 -0.27342716
2.1428559 0.5 2.7996366
-2.6101193 0.5 -2.806123
-1.9257647 0.5 2.5732291
-1.0464251 0.5 -2.5844326
-2.685611 0.5 -0.37594706
-2.6001041 0.5 -0.69618958
-2.8958256 0.5 1.4550015
-0.028658606 0.5 -2.0107596
0.47563428 0.5 0.95498163
-2.974371 0.5 -1.1167455
-1.0117089 0.5 0.40233377
-2.5035799 0.5 -1.0747581
1.5630678 0.5 -0.78844112
-0.80337173 0.5 -2.7298706
2.2811623 0.5 1.8336384
-2.9133008 0.5 -1.4813354
-2.6547942 0.5 0.47468874
0.1974217 0.5 1.5293009
-2.2814085 0.5 -0.26726443
1.9184011 0.5 0.97417921
2.7927277 0.5 1.6446406
-0.24725106 0.5 1.2952968
-2.5593834 0.5 -1.8382342
0.97333324 0.5 -2.8616192
-2.7558866 0.5 -0.25729284
1.927742 0.5 1.1624389
0.7182284 0.5 -2.994139
-2.7717259 0.5 0.11809833
2.7309387 0.5 -0.16055289
0.13725021 0.5 2.506603
-1.5847849 0.5 -2.1693177
-1.6644069 0.5 -0.18624569
-2.3672447 0.5 -1.3736018
2.2301323 0.5 -2.5041373
0.96574396 0.5 2.5849903
0.46659464 0.5 0.30192322
-1.4658275 0.5 -0.17572297
1.9183258 0.5 1.2997112
1.0271633 0.5 0.061228868
-2.4999657 0.5 -1.1118637
0.6910131 0.5 -0.16219713
-2.0215063 0.5 2.8695061
-2.1646109 0.5 0.72471988
2.1575847 0.5 2.8287387
1.4891192 0.5 2.2264898
-2.6867878 0.5 -0.91055572
-0.9952299 0.5 0.40552121
-1.2192591 0.5 2.362406
-1.0028504 0.5 -1.8314176
2.1909378 0.5 -0.011606781
-1.1554198 0.5 -0.98675394
1.7629697 0.5 -0.93641651
0.81995445 0.5 -0.65953398
0.68910724 0.5 -1.2206932
2.5418744 0.5 2.1795328
-0.14359936 0.5 -2.6714058
-1.066542 0.5 -1.1708064
0.20374694 0.5 -1.6130282
1.9187399 0.5 1.6721712
-0.41527477 0.5 -0.93379861
-2.7714939 0.5 -1.7419714
0.16342236 0.5 2.1449382
-1.5888791 0.5 -0.46643019
-2.86641 0.5 -2.8789282
-1.6406592 0.5 1.1904316
2.2321479 0.5 0.20357294
-2.4032419 0.5 -1.8325974
-1.4843318 0.5 -1.0537457
1.3597287 0.5 -1.716427
2.7583818 0.5 -1.2284477
-2.1858366 0.5 -0.079739235
-1.8327138 0.5 -2.9851983
1.0084021 0.5 2.3177793
0.97908956 0.5 1.3914378
1.3970964 0.5 -0.20084783
-2.9904313 0.5 -1.137254
1.0503107 0.5 2.873311
-0.71504635 0.5 -2.1559534
2.7966366 0.5 -1.9531292
-2.19436 0.5 -2.1027234
0.11395735 0.5 -0.44331211
0.94185501 0.5 1.4753782
-2.058785 0.5 -2.2203796
-2.9308195 0.5 0.39937621
0.2113145 0.5 -1.7898229
1.3744458 0.5 -0.82724369
0.18146887 0.5 -2.8004329
1.7187004 0.5 -2.5785911
0.32365906 0.5 -2.9257047
-1.8566531 0.5 0.60446537
0.077308826 0.5 -2.9646544
-0.18247841 0.5 0.98925883
0.63671774 0.5 1.3201538
-0.72485805 0.5 0.18224604
