# .PCD v0.7 - Point Cloud Data file format
VERSION 0.7
FIELDS x y z
SIZE 4 4 4
TYPE F F F
COUNT 1 1 1
WIDTH 2018
HEIGHT 1
VIEWPOINT 0 0 0 1 0 0 0
POINTS 2018
DATA ascii
-3.2657471 1 -2.8477955
-4.1571145 1 1.3162839
-1.9761122 1 -2.1181908
-2.1363521 1 2.2399867
-2.7834923 1 2.2888207
-3.9049242 1 0.94267356
-2.8256884 1 -1.0038174
-4.1785412 1 2.5999804
-3.2658174 1 2.9171917
-5.8892069 1 -0.79979861
-1.5097251 1 -1.7901999
-1.2560507 1 0.99215806
-3.4498572 1 -1.4009081
-1.9801753 1 1.0318587
-5.7134867 1 1.7925466
-4.5281878 1 -1.0480888
-1.0993102 1 -1.312925
-2.7723393 1 -2.6791644
-2.1056402 1 -2.9261544
-1.9676262 1 1.2351425
-3.3006239 1 0.90357882
-1.2842903 1 2.466284
-2.937887 1 1.6146564
-5.2727337 1 -1.4448402
-1.9924983 1 -2.3451192
-4.9800758 1 -1.988353
-1.7268908 1 -2.7269995
-3.9150989 1 -2.372771
-3.380373 1 0.37803283
-3.257297 1 -1.3168188
-5.3158679 1 2.56144
-1.8218325 1 0.95969135
-5.9323058 1 -0.82785708
-3.6234 1 -1.2841281
-1.031467 1 1.5684909
-4.9399991 1 0.96976614
-3.2539208 1 0.43062758
-2.7989199 1 0.95489264
-1.7535383 1 2.1425416
-2.3835931 1 0.91076654
-4.5782909 1 1.0593656
-3.8473575 1 -1.378539
-5.4468431 1 2.8604445
-1.826605 1 0.90599036
-3.9668183 1 2.5470352
-1.5809697 1 0.5761258
-3.1972466 1 2.0413508
-3.9149592 1 -2.2556353
-5.5064468 1 -0.89814329
-4.0773497 1 0.8950296
-5.595294 1 0.48143664
-2.3609035 1 -0.56094319
-4.6584682 1 0.59983319
-4.4258757 1 2.2127631
-5.9358597 1 0.8445732
-5.1809187 1 1.8403828
-1.1411283 1 1.1885448
-4.5433798 1 -1.6160588
-3.3027716 1 2.4956958
-4.7996769 1 -1.2054886
-1.2913932 1 -2.0622561
-2.0937874 1 1.6274381
-3.0286927 1 0.86072594
-4.0284147 1 -0.58997685
-2.7163534 1 -2.0993187
-4.1239753 1 0.95724249
-2.1912799 1 1.1335142
-4.1721878 1 -0.058761433
-1.8656193 1 -1.6878769
-1.0251123 1 2.1634023
-3.0342598 1 2.3961041
-1.4713533 1 -0.44534799
-4.1837502 1 -0.68967295
-5.6182933 1 -2.9895234
-1.601588 1 -2.2508898
-5.1004524 1 -1.0208074
-1.6958567 1 -2.875402
-3.585047 1 -0.85602427
-3.6829827 1 -0.21830958
-1.4961109 1 -1.8604012
-5.1017814 1 0.67732859
-4.0952883 1 0.15052855
-4.8375349 1 0.84094423
-5.9869895 1 0.34840876
-5.9695287 1 0.88568527
-4.7210116 1 0.29734698
-1.4223573 1 -0.42377669
-1.2146939 1 -2.4535191
-2.6414011 1 -2.0026331
-3.0052502 1 -1.5668145
-1.1059189 1 2.3515518
-2.2347999 1 -0.41910118
-2.4856808 1 -0.39690053
-3.8872545 1 0.14567587
-4.4679356 1 -0.25540403
-5.944078 1 -2.8254037
-1.4396561 1 -2.8129175
-2.1459506 1 -1.3514595
-1.2351491 1 1.4997911
-4.5728712 1 1.9457893
-2.1842287 1 1.8528563
-1.1034818 1 0.61709607
-1.8019837 1 -1.6838567
-2.4634845 1 2.7428112
-2.7062778 1 0.78348273
-3.1319511 1 1.0567613
-2.8409574 1 1.5834543
-2.5291533 1 -2.2389634
-4.7815857 1 0.87931329
-2.2812378 1 0.72281331
-5.52422 1 0.62986463
-3.6123137 1 1.2777959
-4.6408072 1 -2.8171356
-2.4472351 1 0.088827886
-2.0185869 1 2.4412816
-3.3243916 1 -1.7601821
-5.0856605 1 1.3428763
-2.7247508 1 1.6131408
-1.4563565 1 -2.0244949
-2.9218786 1 1.5795715
-4.1265674 1 -1.8451854
-5.176342 1 -2.1728883
-2.3060017 1 -2.9817815
-2.0012276 1 1.6687655
-2.1492741 1 -1.3795161
-1.2180769 1 -2.3694375
-4.1517138 1 -1.4639333
-1.389841 1 1.4759212
-4.0784087 1 0.75686055
-2.4525669 1 0.80654263
-5.085186 1 0.57075673
-3.160495 1 -1.9023591
-1.7819755 1 -2.4184458
-1.7516115 1 -0.80287355
-4.5328875 1 2.7984536
-1.832081 1 -0.1886683
-5.7811437 1 0.030279322
-3.2210324 1 0.90674078
-5.6809011 1 -2.0570161
-1.9423352 1 -1.3604187
-3.2865729 1 2.5397618
-4.237834 1 -0.22490996
-2.4084327 1 -1.6936593
-1.4391756 1 -0.76314521
-2.7772982 1 -0.52219564
-2.4413872 1 -0.41209221
-2.7558343 1 2.193017
-2.8062999 1 1.2078464
-4.3175344 1 -2.0697212
-2.7458947 1 0.80313605
-5.0132594 1 -1.9876626
-4.2461953 1 1.4684861
-4.6210451 1 1.4184948
-2.4438107 1 -1.8194705
-3.7157195 1 -1.3401786
-4.5860453 1 1.3601352
-5.2728658 1 1.248778
-3.9278941 1 2.4700401
-5.9409714 1 0.49984285
-4.3905067 1 2.0950468
-5.7290668 1 2.0621943
-4.0418377 1 -0.97204262
-1.4893144 1 -0.72695041
-3.8534725 1 -0.74536359
-1.8859234 1 1.8301556
-4.1195545 1 0.77978009
-1.3864465 1 -0.78290516
-3.4677432 1 1.8698102
-2.5844765 1 -1.9472359
-3.4175479 1 0.072198644
-1.9092925 1 0.60511684
-5.3462834 1 -0.085752241
-1.9663544 1 1.7390149
-3.1779385 1 1.2585639
-4.4202108 1 2.4075446
-2.4704704 1 -2.7081525
-3.7701039 1 2.57248
-5.0749459 1 1.1935438
-3.1912961 1 2.7791905
-1.4366894 1 0.39914149
-1.5570204 1 0.85653251
-2.5655484 1 0.13902622
-2.7084689 1 2.7151086
-5.6068268 1 -1.0032746
-2.7044334 1 2.8229945
-1.7170078 1 0.51444715
-1.2305952 1 -1.4377676
-5.5180616 1 0.84173399
-2.5073013 1 1.1963863
-2.1392856 1 -0.0015673279
-2.8045213 1 -2.3523238
-4.2320757 1 -1.3108504
-4.4637861 1 -0.84918946
-3.9889669 1 -1.6942916
-5.6610913 1 1.5915202
-5.3660822 1 2.3710313
-1.2234939 1 1.8126045
-3.6197734 1 -0.69914532
-5.0226636 1 0.90046376
-2.0166407 1 1.3637959
-2.0192528 1 2.1613402
-5.9397926 1 -0.89821362
-3.1245432 1 0.66016847
-4.5398588 1 -0.18621947
-2.3636782 1 -0.73493057
-5.016212 1 -1.7138463
-3.9679306 1 2.8311193
-1.9889381 1 0.65922916
-3.1541803 1 -2.3917198
-4.654953 1 -1.8077821
-1.9279462 1 2.3065572
-5.53018 1 -1.7445775
-2.0272026 1 -0.26086947
-3.1274834 1 0.57054168
-3.4378493 1 0.67686862
-4.6627336 1 0.40284482
-2.5191441 1 0.2629174
-2.2376759 1 -1.694854
-3.3363912 1 -2.5403888
-2.3225911 1 0.99590784
-5.3355613 1 -0.062978625
-4.1798229 1 2.093925
-2.0874522 1 -2.3995972
-2.5222344 1 -1.8291849
-3.4731374 1 2.0769794
-4.6012516 1 1.7345011
-5.2726598 1 -0.17278124
-5.7108555 1 -2.2044241
-3.5356121 1 2.5285754
-2.7695935 1 -2.0456984
-4.42944 1 2.1195893
-4.5344043 1 -1.9115881
-3.0242791 1 2.3199086
-2.023608 1 -1.004719
-5.0722494 1 -1.152239
-3.5338819 1 -0.49739903
-1.4247172 1 -0.75404549
-1.7126859 1 1.7532974
-5.3867264 1 1.1543843
-4.6010184 1 1.3490256
-3.0105159 1 1.1450037
-1.5431648 1 -2.8488755
-4.7291451 1 2.2052186
-3.5956593 1 -2.4749024
-5.2701907 1 1.2284685
-2.190589 1 2.1427858
-3.0195875 1 -2.6206989
-4.27633 1 2.9251254
-2.1984923 1 1.750919
-4.1224661 1 -1.6384687
-1.3708421 1 0.58368242
-3.2791815 1 1.6495386
-3.0273073 1 0.9299624
-1.7026714 1 -0.82455087
-5.8275089 1 -0.16248906
-2.8749564 1 1.0207564
-1.4462661 1 2.1338542
-5.8140974 1 -0.67456323
-5.6893063 1 -1.8473082
-3.6075048 1 2.1806643
-1.3382862 1 0.72032988
-2.3110902 1 2.5858943
-5.0603213 1 -0.68894589
-1.6102586 1 -0.34939292
-2.9845099 1 -2.5719545
-3.2553251 1 -2.5088694
-4.9565859 1 -0.65753669
-3.5130091 1 0.77200198
-4.6372814 1 1.6055627
-2.7161283 1 -1.3126031
-1.3505688 1 1.2421489
-2.5511186 1 -2.5392034
-1.8609426 1 -2.0526421
-3.0091858 1 1.9876839
-3.5915072 1 -1.8192309
-2.878098 1 -2.7757516
-2.0595467 1 -1.0000319
-3.1554413 1 2.1127708
-4.442111 1 0.039093576
-2.1180491 1 2.5299191
-4.3057213 1 -2.2237165
-1.3759692 1 2.7041681
-5.6079745 1 2.6208124
-4.0290451 1 -2.9036117
-2.3418515 1 -1.3771172
-5.3739033 1 -1.2038176
-5.0001559 1 0.40446952
-1.6668756 1 -1.112927
-5.1881604 1 -1.0037532
-5.2533164 1 1.9242563
-4.4698482 1 0.05510075
-3.1760426 1 2.1166162
-2.6829894 1 1.6946974
-2.0510099 1 2.4782898
-1.8903629 1 1.8167868
-4.1855578 1 -2.2821424
-1.1919206 1 0.38322631
-1.8660365 1 2.7775748
-3.7209148 1 -1.2371901
-5.393837 1 -0.36763495
-3.6009307 1 1.4815124
-3.6927652 1 2.8209713
-2.2204592 1 -0.92521507
-5.0449548 1 0.8468858
-4.1754379 1 1.5736675
-2.2034159 1 1.9247911
-1.0069866 1 1.676008
-1.6456971 1 -1.8273504
-1 1.2749885 1.4915888
-1 3.3369722 0.70781714
-1 3.949697 -2.0059545
-1 1.4188844 -1.6097174
-1 1.1205033 2.223274
-1 2.6625283 -0.4674364
-1 4.0740047 2.2458167
-1 1.6967839 2.9355316
-1 4.9047689 0.74039906
-1 2.6981156 2.0648885
-1 5.7436996 -2.0219266
-1 3.229681 1.615267
-1 4.4093761 2.7691658
-1 2.7526338 2.5387239
-1 5.4354959 0.040557336
-1 4.1409526 -2.9693637
-1 4.920013 -1.8034326
-1 3.6630409 -1.3595511
-1 3.5555937 0.91986161
-1 4.7895923 -0.86759037
-1 3.2310729 0.98031229
-1 1.6009506 -2.4952176
-1 4.2930622 2.7799408
-1 3.9083388 -0.31599501
-1 3.1395452 -0.92435104
-1 3.2071407 -2.5302241
-1 3.1560802 -2.9805
-1 1.1618012 -0.84884632
-1 3.4277198 1.0600539
-1 4.9608226 -2.2901309
-1 1.4068065 -0.36642778
-1 3.0406601 2.7805333
-1 2.1993561 1.2402645
-1 1.8325909 -0.75157607
-1 2.3592494 -2.9241853
-1 3.8998344 0.9813658
-1 3.1168745 -1.3905543
-1 3.0843747 0.39756733
-1 4.4991183 -0.93793648
-1 1.265875 -0.75206089
-1 5.0827599 1.904829
-1 5.6934729 0.41816747
-1 5.3276949 0.90734333
-1 2.3948026 0.14152248
-1 3.6474295 -0.65942872
-1 3.5210714 -2.5016193
-1 5.1566811 2.6374583
-1 2.4742715 2.8703778
-1 3.1368837 1.5599291
-1 4.7001114 2.6259739
-1 5.953546 0.93610275
-1 4.1282611 0.47062761
-1 4.8252068 0.72476608
-1 1.3374459 1.4784591
-1 1.5733167 0.047701754
-1 2.6723645 -0.35684496
-1 1.8417302 1.9361129
-1 1.237494 -1.7660056
-1 1.021457 0.69536942
-1 3.6213388 -2.7842581
-1 2.9979622 1.3228029
-1 4.5581336 2.6774313
-1 5.3425126 -0.62867689
-1 1.5504563 -2.4168038
-1 4.014555 -2.7933886
-1 4.0940576 1.6826161
-1 4.6887994 0.065852232
-1 2.9156542 2.3336513
-1 5.8589969 2.8835809
-1 2.017946 2.6535771
-1 1.6583762 2.3957012
-1 3.8630478 1.0147817
-1 3.3254335 -1.9289865
-1 4.3732281 -0.045658953
-1 3.4012349 -1.5063213
-1 3.0568824 0.97040248
-1 5.8612428 -0.93952179
-1 5.9709964 1.0511374
-1 4.8604155 -1.1756274
-1 4.6663833 -2.8729205
-1 4.0890117 -2.768991
-1 3.081847 -1.7999417
-1 4.77315 -0.43639991
-1 2.9881275 2.403132
-1 3.0642257 0.17859678
-1 5.5747614 -2.8104963
-1 2.1920986 -1.6556755
-1 3.7579684 -1.6502472
-1 5.5098643 1.560217
-1 2.469243 2.0809543
-1 2.2574441 -2.9967175
-1 1.8724293 -2.6303093
-1 4.8723321 -0.65916127
-1 5.5996652 0.71195018
-1 4.6048851 2.2054799
-1 4.9025464 1.9331392
-1 4.5867066 1.5775441
-1 2.3461659 1.2045467
-1 5.0965781 0.14779837
-1 2.6969397 1.2908801
-1 1.165197 -1.287369
-1 1.1597263 -2.5329661
-1 5.5435753 0.042452946
-1 1.6421773 1.7448163
-1 2.8287609 1.6857151
-1 1.5045608 -1.3714707
-1 4.7264595 1.7724855
-1 2.3556995 -0.82828128
-1 4.3632774 2.5899956
-1 4.6096082 2.2332556
-1 1.7610749 2.6309824
-1 3.9066899 -0.55216646
-1 3.1283 -0.79674971
-1 3.199055 -0.80113208
-1 1.1070821 2.9684453
-1 3.9166074 1.4772865
-1 1.2023917 2.1381516
-1 4.1565342 -0.60671622
-1 5.537003 1.5332277
-1 4.8536625 -0.47790283
-1 3.5757551 -2.5216963
-1 2.9607258 1.6613255
-1 3.8810031 -0.52709973
-1 5.2089195 2.7781804
-1 1.5441395 -0.12651773
-1 1.4915485 -0.77759153
-1 3.9536927 0.66454113
-1 2.5172784 1.3649105
-1 3.5284722 1.0832462
-1 1.0838517 -2.9673469
-1 1.8803564 -2.3080924
-1 1.0831834 -0.39285186
-1 3.8520591 2.7545912
-1 4.7305589 0.43576372
-1 4.3608594 1.1811854
-1 4.5717225 -0.67657131
-1 5.8677082 0.29339239
-1 1.9752768 -1.8041339
-1 4.2501278 -0.037077293
-1 1.0555379 0.58221799
-1 1.001116 -2.6728117
-1 4.8479366 2.939841
-1 5.5026898 1.9354721
-1 5.0936751 0.45645475
-1 5.8199482 2.3039212
-1 2.7885904 -1.4463166
-1 3.9162092 -2.3609276
-1 4.4051967 1.1859058
-1 2.4120865 1.5279672
-1 2.473882 1.9203397
-1 3.4442453 -2.8409262
-1 2.8989317 0.81142247
-1 2.7986667 0.49315432
-1 1.0244535 2.4132214
-1 1.7852114 0.34980422
-1 5.6250801 -0.42942041
-1 3.0356076 0.42966157
-1 1.970487 1.0150688
-1 3.9469965 0.55055255
-1 1.4936086 0.11935908
-1 4.6941748 2.6888354
-1 4.4290514 -1.5670735
-1 5.7814221 0.14692554
-1 1.6033462 1.1829828
-1 5.6253819 -2.1110089
-1 1.208389 1.1121894
-1 1.9240897 1.8630953
-1 2.6401923 1.6571193
-1 4.3319736 -2.2983949
-1 5.2495613 -0.824
-1 5.448493 0.81615222
-1 4.9298849 1.9476633
-1 2.5416741 1.1583745
-1 2.78655 0.38375777
-1 4.7581882 0.080267899
-1 3.2765365 2.551826
-1 5.1301856 0.24474868
-1 3.2353442 1.5199635
-1 5.9972095 1.5633763
-1 4.827868 1.9029542
-1 1.2012014 -1.4590372
-1 2.561455 0.072551027
-1 5.8075604 -1.5549183
-1 2.7381849 -0.39929333
-1 3.3777812 2.0188975
-1 3.5115609 -0.7635352
-1 2.7646043 0.062626652
-1 3.1725187 -0.34583351
-1 5.7057915 -2.6282246
-1 3.3114185 1.4603523
-1 1.483009 2.9615757
-1 3.9147377 -0.82073039
-1 4.035656 -2.6048896
-1 1.6271865 -2.4609787
-1 2.2926755 -1.5719808
-1 5.6575046 2.0489049
-1 1.9300634 -2.0039401
-1 2.034441 0.30018181
-1 2.6108303 1.5947493
-1 1.9912045 2.1860378
-1 4.4251246 2.8980467
-1 4.3610845 -1.546929
-1 5.7289686 -0.08034765
-1 5.0704508 -2.6566772
-1 4.1720824 0.65967542
-1 1.7920504 0.16961025
-1 5.2068915 -0.73830771
-1 3.5467918 -2.6105165
-1 4.0470948 1.3062
-1 1.7050104 1.3887347
-1 5.3484068 -1.7610748
-1 5.1784844 -0.88225746
-1 2.7566998 -1.8248338
-1 2.8906124 0.14372188
-1 2.3184078 2.2382152
-1 3.4178667 -1.1272115
-1 3.7005506 -0.57424569
-1 4.9310632 0.64194459
-1 4.2819242 1.6761416
-1 1.4589242 0.30506137
-1 3.7734821 0.98905605
-1 1.7086066 -0.68970138
-1 3.1790357 -0.22772782
-1 1.2204252 -2.2080247
-1 1.4599618 0.091571167
-1 5.1903205 -1.4503477
-1 2.0690064 2.3332593
-1 3.0260825 -1.7442459
-1 4.0959902 -2.9834895
-1 1.8895595 1.6457393
-1 2.3979952 2.9170332
-1 4.046422 -0.6954177
-1 5.1959243 2.527822
-1 5.5754704 2.4945939
-1 4.2555118 -0.25241047
-1 4.4081306 -2.460947
-1 1.8253767 0.28981397
-1 5.7141423 -0.47731888
-1 3.6212187 -2.6339784
-1 3.5937011 2.0659921
-1 1.3366001 -0.16209526
-1 1.1983219 1.6833624
-1 2.3573513 1.5120509
-1 1.5703882 -1.4729946
-1 5.7280445 -1.7099153
-1 1.1487288 -1.4610283
-1 5.2503071 1.8535452
-1 5.7333307 0.4617115
-1 1.528862 0.92747194
-1 5.9188256 -1.9269681
-1 4.3621464 -0.76526141
-1 4.6323051 1.4314078
-1 2.4379089 -1.6151087
-1 4.9579935 -1.5440921
-1 2.4129844 -0.42638245
-1 5.2628431 1.3535513
-1 2.6978903 -2.7759459
-1 5.7871323 1.026826
-1 1.5566512 -0.85043728
-1 3.1024377 -2.2302692
-1 1.3140514 0.81206113
-1 2.5894871 2.5128462
-1 4.9751668 2.0280421
-1 2.6670146 1.8854709
-1 5.2405014 1.5797265
-1 5.951139 -1.3632194
-1 3.2070575 -0.69689667
-1 2.8336341 -2.8705721
-1 4.545011 -2.3615649
-1 5.9624062 1.8038532
-1 4.6795216 0.26342902
-1 1.0329568 0.90238786
-1 5.221034 2.4040921
-1 3.601104 0.28059223
-1 1.7435555 2.0048831
-1 4.3764329 0.28687978
-1 1.6484654 -2.5876107
-1 2.8099599 -1.7606208
-1 2.5942469 1.2676218
-1 1.5301883 2.0360854
-1 4.5366101 2.9929798
-1 4.9756584 -1.9035664
-1 1.4796383 -0.19925307
-1 5.4864583 2.4951484
-1 5.9541121 -1.3353448
-1 4.2955837 -0.14622432
-1 4.7737169 -0.28133836
-1 4.0864015 1.5166329
-1 2.0207694 1.8789339
-1 4.133472 -2.2186787
-1 2.5269477 -1.7661365
-1 2.5152473 1.3333684
-1 5.6878581 0.43322065
-1 1.0199466 -1.0937353
-1 5.1785274 2.2003834
-1 2.4041021 2.3328912
-1 2.6478093 2.8544781
-1 3.1167064 1.4620411
-1 5.6444278 -1.0261521
-1 3.7759845 -0.90837616
-1 2.4737823 -2.9125662
-1 5.4173431 -1.3021516
-1 2.6396239 -2.9795198
-1 3.3616583 -1.348763
-1 5.1845503 -2.6904733
-1 3.851856 -0.0095342183
-1 2.7400079 -2.5928252
-1 2.4974716 1.0279568
-1 4.934207 -0.075550064
-1 1.6444604 -1.0032266
-1 3.1584208 2.8470719
-1 3.0126979 -2.6000655
-1 5.1829505 2.1657741
-1 5.1488166 1.7434504
-1 2.3967547 -0.82824326
-1 1.8808771 0.75549734
-1 1.8967675 1.671437
-1 1.2181427 0.85740048
-1 2.9314041 2.8300207
-1 3.0573208 0.46823168
-1 4.7293653 -1.9907119
-1 4.4744849 0.16359816
-1 3.8079274 -2.3202586
-1 2.4175508 -2.8939142
-1 5.3233013 2.9782999
-1 1.703707 1.7737992
-1 2.9628692 1.6133033
-1 5.7485976 2.3512902
-1 2.1775982 -2.4498014
-1 1.8942995 -2.9349887
-1 2.6746857 -1.7152286
-1 5.9925389 -1.703087
-1 1.2652026 1.2007157
-1 5.1323004 0.1876343
-1 4.9554906 0.012605811
-1 4.9193234 0.36610362
-1 2.8756557 -1.2576619
-1 5.5644946 2.2801061
-1 4.4833117 1.4613925
-1 3.566314 1.8770715
-1 3.4579618 -1.5303696
-1 1.3166761 -0.26835883
-1 4.1551547 -0.69110453
-1 1.1563473 -1.9643806
-1 1.4690711 -2.8316376
-1 1.4900808 -1.1211189
-1 2.1002536 -0.58832157
-1 4.1963568 -2.9046829
-1 2.9965334 2.927603
-1 5.4321876 -0.48710287
-1 3.5606401 2.0514143
-1 1.1112561 0.61124891
-1 1.5585209 2.3302052
-1 2.7103617 0.52854174
-1 5.9843297 -1.1001725
-1 5.7037253 -1.0233976
-1 2.572257 2.072016
-1 3.552793 2.8593309
-1 3.3939309 2.7366328
-1 3.2732692 -1.1537231
-1 4.0851073 -1.0455905
-1 2.5041308 -1.1274636
-1 3.5228791 -0.10242935
-1 2.4065545 2.1712034
-1 3.2874572 -1.5214204
-1 5.121078 1.1656857
-1 1.8267407 -1.470103
-1 5.2801008 -0.69233465
-1 5.0456524 -1.1124862
-1 4.6067071 -1.1919504
-1 1.5295788 2.8077986
-1 3.2722297 -1.4904006
-1 5.1513357 0.50811499
-1 5.322051 0.55204648
-1 3.9407237 0.58657563
-1 1.4764242 -0.44334012
-1 3.4192336 1.2434589
-1 5.8694053 -0.57525331
-1 2.0232964 -1.3434063
-1 3.8774402 -0.4755207
-1 5.8640242 1.4586995
-1 5.5436888 -0.34435675
-1 3.0276897 0.74374145
-1 3.8745482 -1.9870588
-1 4.7946258 1.6028504
-1 5.7722516 0.69128901
-1 1.5111519 0.27577209
-1 3.5835834 -2.4283156
-1 4.5423388 -1.0082504
-1 1.7813492 -1.7522092
-1 2.5738838 2.8139155
-1 5.0050492 2.2389593
-1 5.5789771 -1.1548047
-1 1.8185464 2.6638808
-1 5.130311 -2.9373913
-1 2.8017282 -0.49675608
-1 3.9538767 2.5076611
-1 4.413497 -1.4402095
-1 3.4606895 0.98673564
-1 5.1411066 -2.259726
-1 3.0614552 -0.45113093
-1 2.7513142 1.3687491
-1 1.4829131 0.50298113
-1 3.4075875 -1.3619421
-1 2.847389 1.4976783
-1 2.743041 -1.4967654
-1 3.5709677 1.8025438
-1 2.7504029 -0.658472
-1 5.1507521 1.6398034
-1 1.7953115 0.089944415
-1 5.5615215 -2.4844155
-1 1.3134063 1.2819164
-1 3.5946548 -2.8268037
-1 4.4329567 1.8628186
-1 1.7028601 0.37702024
-1 4.1989903 2.9722588
-1 1.6935996 1.3398235
-1 4.6978393 1.7554862
-1 5.7952924 -0.64756274
-1 3.5282981 -2.0243032
-1 3.6782055 1.6379167
-1 2.8188982 2.3023188
-1 4.9554253 -0.25646892
-1 4.6667647 -2.6551716
-1 2.7714624 0.16230756
-1 3.3998296 1.7152681
-1 3.3535943 1.8108094
-1 5.5866337 2.9565923
-1 3.512444 -0.5928266
-1 4.5917153 -1.7062477
-1 2.9655538 -2.5565817
-1 5.695415 0.5949595
-1 4.5326133 -0.19013022
-1 4.9600616 -1.845075
-1 4.3853474 -0.92173582
-1 4.6558599 -1.917791
-1 2.5146401 -0.33000591
-1 5.5326557 -0.96092433
-1 5.4603095 -1.4690182
-1 1.448354 -0.49409097
-1 4.2921004 -1.1260871
-1 3.5530698 2.8494222
-1 4.5446692 0.94601238
-1 4.8615527 1.2426616
-1 2.9366777 2.6021881
-1 4.4729042 -2.4016125
-1 2.6692224 0.61319357
-1 3.2192323 -1.5767546
-1 4.8207726 1.0477821
-1 2.2691364 -2.6738386
-1 3.0926213 2.4792275
-1 4.9694333 2.1018655
-1 4.7184701 -0.84407115
-1 1.2951574 -1.9623137
-1 3.3662601 -2.1117647
-1 2.7032404 -1.4547313
-1 1.7059281 -1.7064821
-1 2.7279172 1.6778263
-1 5.3558416 -1.3253562
-1 2.1021452 1.2418987
-1 1.558543 0.13370118
-1 5.690589 0.55734563
-1 4.1936979 -0.10779142
-1 5.6004834 1.9751688
-1 3.871006 -2.0045528
-1 2.3906136 -1.1176794
-1 4.815166 -1.2323393
-1 2.6593027 -2.6785386
-1 5.4556799 0.41720158
-1 2.6646068 -1.9173465
-1 4.7344379 1.6730642
-1 4.957273 -0.81044191
-1 5.8861823 2.1789017
-1 1.0658349 -0.72445589
-1 4.3577828 -0.68976623
-1 2.6987045 -1.6770208
-1 4.5615034 0.087832108
-1 1.6154022 2.535394
-1 1.0796332 1.5964606
-1 1.7749692 -1.3188144
-1 4.9705467 1.376294
-1 2.7589869 1.2481269
-1 4.1097236 -0.036178604
-1 2.7412264 -1.5845202
-1 3.9486527 -1.8554655
-1 5.0982633 2.960779
-1 2.8932977 0.35519192
-1 3.0396845 -1.7451864
-1 2.265341 -2.8085887
-1 4.9261088 -1.8707552
-1 2.1241326 -0.1735843
-1 4.4179559 -0.85077733
-1 1.4981674 -1.4596798
-1 1.558465 2.1080832
-1 4.1993322 1.7711564
-1 2.2917745 2.4534523
-1 2.2264063 2.2726502
-1 2.8183928 2.4610896
-1 5.727037 -2.697309
-1 5.4080181 -0.39850977
-1 3.5259433 -0.48203865
-1 3.8152504 -1.6209598
-1 5.2332125 1.625715
-1 2.6660123 2.6752059
-1 1.1794845 2.4938889
-1 4.131412 1.7715294
-1 3.2204993 -2.1851487
-1 2.0082498 0.82257891
-1 1.1100658 -0.21921362
-1 5.6055808 1.9715135
-1 1.2697636 1.398293
-1 2.0731614 2.8758459
-1 4.7747607 -1.6522994
-1 2.4842858 0.76383185
-1 1.9429625 -1.7949635
-1 1.0994439 0.60115999
-1 4.0519929 -0.14320019
-1 2.6939075 -0.77627599
-1 4.0648723 -1.2455739
-1 4.4302282 1.3596826
-1 2.7160845 2.9893572
-1 5.0465727 -0.30818233
-1 4.8396492 -0.16693491
-1 2.5934818 -1.0252949
-1 3.8665347 -1.9913456
-1 1.8581406 1.8362435
-1 2.860074 -0.013440913
-1 3.0987408 1.7955881
-1 4.3925343 -0.64377487
-1 1.4684908 -2.2553098
-1 3.7346284 1.0287031
-1 3.7168908 -0.4459931
-1 4.2305279 -2.1281395
-1 4.5087528 -1.7008576
-1 1.2175776 1.8393532
-1 4.5364871 2.0375152
-1 2.5968928 -1.0668727
-1 2.6192944 1.1125749
-1 5.6119413 -2.9972007
-1 1.6848994 0.9399634
-1 5.4437494 2.9123769
-1 2.1582544 -1.3127338
-1 2.9015763 -2.0168803
-1 1.4484755 0.67711598
-1 4.2832384 1.0572724
-1 2.3488269 1.9523133
-1 5.7446852 0.96339852
-1 2.5228064 1.2337283
-1 4.3770981 0.53957862
-1 4.3724322 -0.12652339
-1 5.9390383 -1.3542453
-1 5.7929993 1.2121016
-1 2.9808891 -0.008274667
-1 1.3423563 -0.90969938
-1 2.4708829 -1.9416707
-1 4.2330036 2.0955341
-1 2.4868591 -0.20753339
-1 4.0925236 -2.2911093
-1 1.1487372 -1.14185
-1 2.0480347 0.40353033
-1 2.2589071 2.3314602
-1 4.5159826 -1.9543427
-1 1.536152 2.7181709
-1 1.5499431 -0.75108457
-1 3.0661087 0.75394106
-1 1.3022264 1.5660937
-1 4.7947831 -2.2250574
-1 5.1406722 0.79770499
-1 3.9591877 -1.3966115
-1 5.8622713 1.0189774
-1 1.5348216 -0.60476619
-1 5.4205885 0.06635461
-1 3.6778264 -0.71647644
-1 3.2081115 -1.5720119
-1 4.459919 0.31007734
-1 5.7164874 0.98794484
-1 3.3266437 -2.5579278
-1 2.0350726 -2.9834249
-1 3.3645809 -0.49816433
-1 5.6922669 -1.6417246
-1 2.3905623 0.54062903
-1 3.3985062 -1.549123
-1 3.5090971 2.8793082
-1 4.7032247 1.5394593
-1 2.3232443 -1.4392756
-1 2.84004 1.5204278
-1 4.4866147 -0.87844992
-1 3.7498279 2.7208755
-1 3.722203 -0.3388136
-1 4.5524769 -0.87411445
-1 2.2886844 -1.7303083
-1 3.1897328 -2.2388551
-1 5.7716045 -1.3540981
-1 5.5704517 1.7942079
-1 3.1362174 -1.3102691
-1 5.5350103 0.65622294
-1 3.0690565 -1.398163
-1 4.5331397 -2.7611465
-1 4.0679321 2.5428786
-1 4.6326218 -2.1399708
-1 1.089479 -2.5714004
-1 3.973326 1.4419338
-1 2.7047515 1.8179252
-1 4.9615817 1.4158514
-1 2.9519279 -1.8077242
-1 5.1357098 0.30362111
-1 1.2294148 -0.89148682
-1 3.5596864 0.12924932
-1 3.161597 -1.0003335
-1 2.3997281 -1.0029039
-1 5.9663463 -1.778685
-1 5.2520137 -0.86830574
-1 2.6552365 2.8208892
-1 5.6851115 1.5157439
-1 3.0448642 -1.4923289
-1 1.0577378 -1.1899202
-1 1.563773 -2.1289454
-1 3.0495844 2.1878543
-1 3.2649999 1.0875227
-1 4.9322224 2.166764
-1 1.6037291 0.29969287
-1 4.5682044 0.21661721
-1 1.0153804 -1.1563923
-1 5.7168627 -1.4731165
-1 3.2431023 2.9609973
-1 5.7303171 -0.93030417
-1 2.7135174 -2.0372598
-1 1.2617595 1.6800274
-1 4.9081836 2.6197531
-1 1.7207215 -1.3993156
-1 5.331995 -0.15868597
-1 5.8314834 -1.4692644
-1 1.1925119 0.77298474
-1 3.1198325 2.8877721
-1 5.5750265 0.22947787
-1 5.5100222 -0.60582638
-1 2.0605292 1.3204386
-1 5.4559622 -0.2648015
-1 3.2560079 0.56816429
-1 2.622263 0.23086064
-1 4.9544559 0.25579447
-1 5.2189322 -2.4216509
-1 2.6677065 -1.5967355
-1 3.9560142 0.60193753
-1 3.7689676 0.95300096
-1 4.1514311 -1.1422547
-1 5.1611414 -2.3596187
-1 2.3618724 0.73403853
-1 2.8032084 1.4533684
-1 3.7501488 -2.6051314
-1 4.1349163 0.3560912
-1 4.5612407 -1.005941
-1 3.5973253 -1.7712979
-1 1.258551 0.80855435
-1 2.2617803 -2.5908267
-1 3.8501153 1.0791126
-1 5.7538729 -0.20371599
-1 4.6865706 -2.0018969
-1 5.9099684 -2.1536822
-1 3.3322492 -0.27882561
-1 2.6741347 -0.77664232
-1 3.2676201 0.80581838
-1 4.9441886 -1.8356183
-1 2.8963516 -1.6390268
-1 4.2439423 -0.10381585
-1 3.5619867 -0.45946345
-1 5.360508 0.31179592
-1 5.7000341 0.9812519
-1 4.0365291 2.7326329
-1 2.6259995 0.134103
-1 3.090709 -2.416523
-1 4.3851128 -0.83568758
-1 5.7281432 -0.81324726
-1 3.7875071 -0.94593751
-1 1.5192184 -1.835696
-1 1.6922449 -1.4355235
-1 2.4580173 0.88767487
-1 2.9776771 -2.5517688
-1 4.6130967 1.1618435
-1 4.1674848 -1.171268
-1 4.3909898 2.1851733
-1 3.4185283 1.5596505
-1 4.8113413 0.30064079
-1 1.1667532 -0.17944199
-1 2.7433157 -2.0046084
-1 5.8028088 2.366967
-1 3.1953483 2.3456302
-1 4.6748061 -2.1443138
-1 3.9277542 0.76491505
-1 5.8641601 -0.36111596
-1 2.8162732 1.2117422
-1 1.4582287 -1.0934361
-1 4.0576463 0.81201595
-1 4.5587139 -2.2031002
-1 4.8577843 -0.90571535
-1 3.1987982 0.023677511
-1 2.1437433 0.016450025
-1 1.0531267 -1.1958288
-1 4.6269832 -1.5430658
-1 5.9018416 0.79079372
-1 1.5037014 2.0731156
-1 3.5232718 1.8065546
-1 5.3456655 -0.8267982
-1 1.6990252 2.9470937
-1 5.3708587 -0.11337855
-1 1.8803843 0.16134882
-1 1.9198468 1.526528
-1 1.9472635 -2.096591
-1 3.9403117 -1.4233065
-1 1.5120879 -0.66851789
-1 2.8300774 1.0034933
-1 1.2852702 1.6134059
-1 4.2961946 1.0579064
-1 5.6741915 2.6376352
-1 5.5860143 0.53203446
-1 5.7749786 -2.7457128
-1 1.0438933 2.6456368
-1 3.5881066 -2.5774369
-1 2.0824251 1.685427
-1 4.4546022 0.73452193
-1 5.568799 0.085837722
-1 2.2412879 0.95111662
-1 4.9302979 -1.4237946
-1 1.693475 2.3158877
-1 1.0895337 -2.8304961
-1 1.9762578 -0.87333494
-1 1.5524455 2.468082
-1 5.9618402 1.6311871
-1 5.2575684 2.5584791
-1 3.0666134 -0.79302388
-1 4.2908168 0.12561522
-1 4.4338794 -2.6293688
-1 1.0190738 -1.1108389
-1 3.392065 2.3968241
-1 2.2518778 0.43441781
-1 1.9693713 1.3369987
-1 3.4249296 -2.2659156
-1 2.5383995 -1.7476966
-1 5.2570443 -1.8789326
-1 4.5211763 1.0829301
-1 5.8428831 0.028206877
-1 1.0522416 2.7182565
-1 5.4345226 1.7664846
-1 2.2859209 -1.2307978
-1 1.2806275 -0.74883121
-1 2.0046573 -0.85261935
-1 4.2329884 1.2878747
-1 3.0095146 -1.7002343
-1 5.9223423 1.6671351
-1 4.0538969 -2.8740039
-1 5.8587804 -0.055362772
-1 5.9057918 2.2970493
-1 5.4362192 1.5501803
-1 3.3803599 2.2385502
-1 5.4316897 0.67804676
-1 1.6797417 -2.6991661
-1 3.1007738 0.1752432
-1 5.247232 -1.5743599
-1 3.0809557 2.5277033
-1 5.8595142 -2.5937526
-1 5.6495209 -2.5655315
-1 5.7417922 2.5686555
-1 4.5702076 2.2324932
-1 2.1538415 -2.6678832
-1 5.8847585 0.27164966
-1 2.0148363 -1.4782106
-1 1.5134467 -1.6245645
-1 1.8055186 -2.9766271
-1 4.4294519 -1.2820953
-1 3.6422908 -1.4199016
-1 2.9652116 -1.472976
-1 2.2410977 -1.4695253
-1 1.5221902 1.1278061
-1 5.243012 2.2143028
-1 4.6894836 2.9598134
-1 5.1422334 -1.113169
-1 2.6059175 0.52698892
-1 5.3135247 2.4891479
-1 5.27457 -2.6998804
-1 2.4113958 2.8263216
-1 4.7778983 2.742475
-1 2.2328582 2.5037038
-1 4.6820669 1.407057
-1 1.561744 -1.0027153
-1 5.2522488 -0.52922863
-1 5.1852713 0.66464376
-1 2.0405526 1.1081269
-1 2.9188676 2.0349212
-1 2.0674474 2.0193865
-1 1.5672482 0.58922642
-1 1.2777841 -0.33819333
-1 5.8485756 0.83181882
-1 5.0214152 1.6387585
-1 2.3665106 -1.9915054
-1 4.0377026 -1.5579425
-1 4.9197507 0.60971951
-1 1.02749 0.62504703
-1 2.8743682 0.22848941
-1 1.2659034 -2.3966739
-1 4.6315475 2.411696
-1 5.6135917 -1.693457
-1 1.1772472 1.714933
-1 2.563612 0.94564933
-1 5.2948761 0.51341206
-1 3.6140518 2.632524
-1 1.2106224 1.2627985
-1 2.2268217 0.51740474
-1 3.2685666 -0.92333144
-1 3.6493824 -1.9697266
-1 2.6438389 -0.35647064
-1 1.6633321 -1.9098852
-1 4.4857607 -0.37244523
-1 2.3439822 -1.2478545
-1 3.9200644 -2.9431701
-1 4.7757511 0.46110737
-1 4.163291 0.33089492
-1 1.2679554 0.2171765
-1 2.1302967 1.228079
-1 3.6691823 2.3985233
-1 1.9520599 2.7478964
-1 2.5461776 2.8654246
-1 5.7293196 -0.08930099
-1 1.3500617 1.2513446
-1 3.4298191 -1.9903139
-1 3.3351026 1.2977141
-1 4.1036148 0.73148793
-1 4.6551065 -0.90135467
-1 5.0170674 2.4323614
-1 2.0638654 -2.5529976
-1 1.0614046 -0.6599372
-1 5.641232 -2.164876
-1 5.4169397 -2.7612712
-1 5.5657744 1.1640557
-1 2.6513491 1.3188788
-1 5.9685388 -0.73915261
-1 3.1313956 -2.0574012
-1 4.3505421 -0.53642285
-1 5.8527999 -2.6936226
-1 4.9067354 -0.45233172
-1 4.1617317 1.7822767
-1 5.2616272 1.0399284
-1 3.8697538 0.13517198
-1 3.4718726 2.4404526
-1 5.4119654 -0.2036245
-1 2.6100967 2.3678582
-1 3.8420177 -0.39426064
-1 2.2710195 0.61372703
-1 3.1650577 -0.24343377
-1 2.6544287 0.51145983
-1 3.4083149 -0.81632859
-1 1.3787762 0.9059366
-1 3.1119902 -0.64570844
-1 3.3372769 -0.12494504
-1 2.4046977 0.59499103
-1 2.744072 -1.0461602
-1 1.690502 -2.7761667
-1 2.3476031 -0.51649857
-1 3.3704815 1.1685102
-1 3.7762043 -1.1645633
-1 4.6286373 0.057655424
-1 5.9891853 1.5077238
-1 2.4990795 -1.6796446
-1 3.5752602 0.33468878
-1 3.7835019 1.6369122
-1 4.7751536 -0.90519363
-1 1.518754 -1.8786856
-1 1.1456987 -0.61478925
-1 2.0065296 -0.6499275
-1 3.9540467 -1.6777228
-1 5.8949857 1.1505071
-1 5.9910779 0.85055709
-1 3.5039511 1.8178012
-1 1.3033586 1.1874115
-1 1.8611732 -1.3998405
-1 4.5893602 2.6587126
-1 1.0980163 -1.3318858
-1 4.2291589 0.81362104
-1 5.2538075 1.7176452
-1 1.3370202 -1.2873919
-1 4.133225 -0.034321152
-1 1.0507369 -1.7747614
-1 2.4683321 1.4146495
-1 5.4980006 -2.5996935
-1 2.47702 2.4548388
-1 4.8100872 1.5750762
-1 4.2412748 1.006566
-1 1.4610846 -0.52547508
-1 2.8171196 -0.64830196
-1 5.6798615 2.5435569
-1 2.8255146 -1.375803
-1 2.8827167 0.20269604
-1 5.8406525 0.53195959
-1 3.1984015 -1.0432383
-1 2.531224 -2.0712209
-1 1.622622 2.2528195
-1 4.2477489 -2.493228
-1 5.9253592 -1.6711316
-1 1.8011509 0.40132007
-1 2.881654 -2.3337207
-1 2.1209154 0.14605616
-1 4.4139204 -0.98883379
-1 4.7517471 2.7126107
-1 5.6383467 -1.135188
-1 2.3770771 -0.44397718
-1 5.8291116 2.0388188
-1 4.5838108 2.5784254
-1 3.7391906 0.39468256
-1 1.5244101 2.3012116
-1 2.1932769 1.0156574
-1 1.0828112 -0.82541215
-1 1.3262383 1.7647967
-1 2.9742947 -2.6085727
-1 2.4953125 -1.7713897
-1 4.3872924 -1.852941
-1 5.127254 -2.3080657
-1 3.5252855 1.7118396
-1 2.8226609 1.070829
-1 3.4804652 0.91050905
-1 2.3158178 1.8791815
-1 4.0085802 0.52040327
-1 5.3842673 1.2099774
-1 3.3255951 1.1505998
-1 2.6732163 -0.87423033
-1 5.6255326 1.4241071
-1 3.7137675 -1.8714508
-1 2.5605435 1.4690812
-1 5.4136095 2.7102258
-1 2.1983247 1.2660166
-1 3.7158399 0.53777355
-1 1.847809 2.8592172
-1 2.7151477 -2.3764038
-1 4.7317767 0.078167289
-1 1.6494429 -1.6771181
-1 3.1064935 2.3084443
-1 5.4800053 2.4161229
-1 3.5990899 -1.0389729
-1 1.0475584 0.75541937
-1 5.5646014 1.9601451
-1 2.6746292 -0.9543615
-1 3.5709186 -1.7537261
-1 3.3362806 2.183651
-1 2.2969537 -1.0089331
-1 2.4272325 -0.8381449
-1 5.2224293 -0.44267628
-1 4.0698366 1.6754682
-1 3.0967078 -0.84458619
-1 4.8283291 2.66187
-1 1.0873616 -2.1981487
-1 4.35427 0.36393109
-1 5.9448724 2.038399
-1 3.8677495 1.7419553
-1 2.5071678 0.68457764
-1 4.1887231 0.016865706
-1 5.5856314 0.61304981
-1 1.3234251 0.89723706
-1 4.1158719 2.7408781
-1 5.5235157 1.6130543
-1 4.9599657 0.22399127
-1 3.6235466 -2.8397057
-1 4.2300987 0.99797136
-1 2.62743 -0.55800527
-1 5.5306888 0.89621145
-1 1.6716516 -2.0907571
-1 1.6997612 -2.8187604
-1 2.7215109 2.3886657
-1 4.2169061 -0.21659558
-1 3.7850361 0.34152302
-1 1.47346 -0.51886737
-1 1.8467788 -2.7087736
-1 1.5796217 -1.8656036
-1 3.2429073 2.7430832
-1 4.1729159 1.5248635
-1 5.6666021 2.2198777
-1 4.151197 -2.6662705
-1 3.8491313 -0.30671838
-1 2.830241 -2.8166895
-1 3.1912334 -2.0407698
-1 3.7604384 -0.64082974
-1 4.6252174 0.81501758
-1 4.1398401 -2.9272645
-1 2.2491796 0.015969547
-1 1.820985 2.8230879
-1 4.3624239 -0.033197168
-1 3.0622201 -0.66316313
-1 2.5060043 2.3260357
-1 3.0172014 -2.9190516
-1 2.711684 -2.1830895
-1 1.1129671 1.7312031
-1 2.1810167 1.787384
-1 3.5393794 2.1913381
-1 3.4181538 0.94103646
-1 3.4447696 1.5944844
-1 3.1499162 -2.0478938
-1 3.2052448 1.3920212
-1 4.3105164 2.4456275
-1 3.1872425 1.5973784
-1 3.0523288 2.0638692
-1 1.690811 1.1866233
-1 4.5761495 -2.4845078
-1 2.5551231 -2.6662965
-0.24882388 0 0.59759301
-2.1308968 0 2.0214803
-5.3198657 0 -2.4628222
-3.4156532 0 1.1414962
-0.19969563 0 -0.72377253
-5.090951 0 -1.5163698
-2.2857075 0 -0.33597755
-0.41344622 0 2.2233655
-2.7866931 0 -1.8193636
-1.7557088 0 -2.9389894
-1.0883019 0 -2.5095072
-2.283488 0 0.54688698
-0.32644886 0 2.8742163
-5.2520933 0 0.52469242
-1.5350857 0 0.16147852
-2.9826307 0 -1.1106101
-0.015370318 0 0.29113907
-0.68732542 0 -2.8861547
-5.1340566 0 -1.62686
-2.7727838 0 1.3006392
-2.6507623 0 1.0988303
-1.6697769 0 1.9624699
-2.7635508 0 2.4860423
-2.5119834 0 -1.7174413
-3.5613682 0 1.0486883
-3.8843253 0 2.9254105
-0.10554567 0 -2.9449866
-0.68782383 0 -0.17128561
-0.46013308 0 1.7909312
-3.7138531 0 1.2884312
-0.3151314 0 1.3300822
-2.5127921 0 -2.5134771
-0.4377318 0 0.8600964
-5.4098163 0 1.8327625
-2.8446991 0 -0.57297128
-4.9420757 0 0.80449551
-4.7928967 0 1.0437049
-4.6828694 0 1.6265769
-5.0254407 0 1.7764771
-2.6073031 0 -0.31276926
-5.1841655 0 0.1744426
-1.84433 0 0.8710044
-0.87128407 0 -2.9493415
-2.5914769 0 -0.28367051
-0.25700185 0 -2.3986835
-1.4029444 0 0.4558593
-3.0119355 0 1.5658078
-5.0993452 0 -0.019668313
-2.3524988 0 1.7035953
-5.9054532 0 2.2444489
-0.53099161 0 -2.942868
-0.87987679 0 1.8976833
-2.6218855 0 -1.0713644
-2.5205688 0 -2.9499538
-3.0879097 0 -0.25089282
-1.8852769 0 -0.022869609
-2.7969954 0 -2.1912947
-5.9286113 0 0.70115465
-5.967948 0 -1.723735
-3.3751385 0 -1.0499669
-1.8640362 0 -2.9682817
-1.7497723 0 -2.8087616
-5.5451388 0 0.084883317
-1.6878678 0 1.6567436
-1.5877755 0 -0.35710481
-2.089561 0 2.7589383
-2.1353002 0 -0.66673946
-0.51788974 0 1.1242131
-1.920199 0 -2.7579362
-5.3676691 0 1.3443859
-1.4676028 0 0.19633129
-1.4041663 0 2.4882152
-1.0216894 0 0.091041714
-1.191456 0 1.9541527
-4.5049434 0 2.3612187
-5.2191529 0 -0.71092296
-4.7370296 0 -0.45912504
-0.070508249 0 0.17163275
-2.3189344 0 -2.8681145
-1.834807 0 1.2521652
-4.5235786 0 -0.56823421
-4.9162412 0 -0.75918925
-3.8926716 0 0.72271377
-4.0747552 0 -1.5301722
-1.9830605 0 0.13151833
-0.70549762 0 -2.7776451
-2.1273434 0 0.49142182
-3.0455935 0 1.4641435
-3.388859 0 -0.39696467
-3.1250877 0 -2.0136204
-5.6294184 0 -1.3640776
-0.76588672 0 -1.4166179
-2.2842653 0 1.9800029
-3.7296927 0 -0.13911583
-0.79003716 0 0.55070043
-1.0530739 0 -0.57186145
-0.60836387 0 2.9615371
-1.5912075 0 -2.386467
-4.5194945 0 2.9708641
-5.3134236 0 -1.4726646
-3.3406646 0 2.2362547
-0.068819612 0 -2.4579654
-2.9020553 0 -1.6260118
-0.86206096 0 -2.8314359
-1.1402926 0 -2.0283902
-2.2416935 0 -1.5780933
-3.3854163 0 -2.191468
-3.3084905 0 1.3276397
-2.0814245 0 2.1582408
-2.0231524 0 -1.5513859
-4.9684815 0 0.75924015
-3.4409912 0 -0.35003769
-2.3569219 0 -1.0829679
-5.6089458 0 0.68074441
-5.2718177 0 0.67353958
-3.328598 0 -1.1928717
-0.48478454 0 -2.0163858
-4.8677206 0 0.63550341
-1.5230002 0 -1.5143684
-5.8394818 0 2.0499454
-2.9422538 0 1.2558545
-4.4607339 0 -0.49617344
-5.1608095 0 1.18752
-1.326745 0 2.3098972
-2.6882339 0 1.0024205
-4.0353131 0 0.81579065
-0.42105651 0 2.3218689
-4.4538279 0 -2.4821923
-5.7248349 0 0.68322808
-2.7535715 0 2.8958399
-0.85346216 0 1.5926927
-3.3651712 0 -2.010041
-4.3575177 0 0.60585034
-0.73255807 0 2.0061324
-5.3523521 0 0.042323191
-1.3571934 0 -2.7428129
-2.9887748 0 2.6856949
-1.6325125 0 2.0624375
-0.59689713 0 2.20068
-1.9633533 0 -2.2586634
-1.7550333 0 0.78777385
-4.9404187 0 -1.5472512
-2.960501 0 -1.8871332
-4.1722016 0 2.8903878
-2.1844664 0 2.2377594
-2.2691128 0 0.60278738
-1.7547388 0 -2.1783438
-1.1261289 0 -2.980814
-5.2510037 0 -0.64570165
-3.6523638 0 2.6873751
-2.1696908 0 -2.1557796
-3.7452385 0 0.3067697
-0.83974099 0 -0.63651872
-4.6140075 0 -1.3325468
-4.394783 0 -1.704751
-2.8703015 0 -2.7555521
-4.0758762 0 2.3007402
-2.4325635 0 2.6621847
-2.3941915 0 -0.32207778
-3.6855948 0 1.9636475
-3.0603449 0 -1.4827337
-1.3719043 0 -0.47202951
-1.9854437 0 -0.94157577
-3.258481 0 -0.49722284
-5.9235749 0 1.1451032
-3.333077 0 -2.9275398
-2.8441808 0 2.5873461
-1.4456614 0 -2.8102167
-0.77003086 0 2.6585891
-1.4141865 0 -1.3331436
-5.3414812 0 -1.0925435
-2.3069489 0 2.7245626
-3.251008 0 1.7764524
-5.1341596 0 0.13534576
-0.12860516 0 0.6916306
-2.4188116 0 2.6830661
-2.2738914 0 0.71243978
-1.4485835 0 2.9580951
-1.0690168 0 0.4008463
-0.38619524 0 -2.6863949
-3.0524826 0 -0.50211591
-5.2375693 0 2.0037892
-4.6866951 0 -1.4981841
-2.2395997 0 -2.6218197
-2.5102913 0 -0.70724267
-3.8935523 0 0.45920408
-3.2596846 0 -1.633256
-4.6845641 0 0.53013843
-4.6007543 0 -2.8120363
-5.4024472 0 -2.8010275
-4.7752366 0 2.4607594
-5.7794685 0 -0.27396575
-3.7870467 0 -2.712676
-0.78341502 0 1.7184662
-0.027054464 0 0.78855878
-1.4415399 0 -1.0680572
-2.3599479 0 2.4845014
-5.6264596 0 -1.6252371
-0.68673664 0 1.3004813
-0.31080937 0 -1.1688232
-5.9128642 0 -2.5634065
-4.834383 0 0.5767743
-5.3823147 0 0.93348974
-4.8076668 0 -2.4100051
-2.2445991 0 -2.1416659
-3.8217168 0 0.82010293
-5.9578309 0 1.1283823
-4.9268336 0 0.77894378
-2.1773078 0 -2.7298825
-4.7782707 0 -1.3820447
-1.1159171 0 -2.4218252
-0.24272986 0 0.35133994
-1.3962785 0 0.1743781
-3.263258 0 0.38912377
-2.0832679 0 -0.61739665
-0.36659962 0 1.5664395
-2.0068054 0 -0.69545633
-4.2635703 0 2.6377032
-5.8214579 0 -1.9233181
-5.2812223 0 -1.3643379
-2.0453119 0 -0.76178992
-0.88896209 0 -2.5764334
-1.591642 0 1.0822345
-1.9403982 0 1.9918687
-2.7186458 0 1.0238026
-3.953439 0 -1.9665948
-1.0863181 0 2.8883026
-2.4772308 0 -0.27342716
-1.752637 0 1.7472056
-5.5992732 0 -2.6101193
-2.3279493 0 1.0309917
-3.8515294 0 2.5732291
-3.0043964 0 -1.8136054
-5.1688652 0 -2.685611
-3.1526027 0 -1.5992503
-5.2002082 0 -0.69618958
-3.1333978 0 -0.79653156
-2.9100029 0 -0.028658606
-3.4568572 0 -2.1715145
-0.95126855 0 0.95498163
-0.17150742 0 0.7611047
-2.2334909 0 -1.0117089
-1.3799489 0 2.0581338
-5.0071597 0 -1.0747581
-4.3783817 0 1.4507052
-1.5768822 0 -0.80337173
-2.9692614 0 0.69919735
-4.5623245 0 1.8336384
-4.6196418 0 -0.84439802
-2.9626708 0 -2.6547942
-4.8726339 0 2.6291652
-0.3948434 0 1.5293009
-2.4182611 0 1.9316347
-0.53452885 0 1.9184011
-2.6840451 0 0.48146883
-5.5854554 0 1.6446406
-1.1921989 0 -1.3745112
-2.5905936 0 -2.5593834
-0.25787047 0 2.4726841
-1.9466665 0 -2.8616192
-1.256255 0 -0.33630785
-0.51458567 0 1.927742
-3.5731874 0 -1.2091506
-1.4364568 0 -2.994139
-5.2732592 0 0.96831828
-0.23619665 0 2.7309387
-3.5254779 0 -2.9781897
-0.27450043 0 2.506603
-5.3932672 0 1.3448373
-4.3386354 0 -1.6644069
-4.0618734 0 1.4202935
-4.7344894 0 -1.3736018
-2.5899734 0 -2.5360408
-5.0082746 0 0.96574396
-4.9965529 0 -0.73746973
-0.93318927 0 0.30192322
-0.39506656 0 0.4624761
-0.35144594 0 1.9183258
-5.3646522 0 -0.50311071
-2.0543265 0 0.061228868
-5.3831406 0 -0.24747457
-2.2237275 0 0.6910131
-4.9709311 0 2.9211454
-4.0430126 0 2.8695061
-5.9745002 0 2.4544961
-1.4494398 0 2.1575847
-2.0532863 0 -0.62341207
-2.9782383 0 2.2264898
-0.81489003 0 0.52620095
-1.8211114 0 -0.9952299
-1.9435692 0 0.49519563
-2.4385183 0 2.362406
-3.8205445 0 2.5246031
-3.6628351 0 2.1909378
-3.4018471 0 -1.3555485
-2.3108397 0 -0.98675394
-0.62600887 0 -0.81549269
-1.872833 0 0.81995445
-0.32581255 0 0.50674218
-1.3782145 0 -1.2206932
-3.3686743 0 1.6262144
-4.3590655 0 -0.14359936
-3.0838776 0 -1.1464498
-2.1330841 0 -1.1708064
-0.51495928 0 -1.1824132
-3.2260563 0 1.9187399
-5.199564 0 0.68170965
-0.83054954 0 -0.93379861
-2.4704585 0 1.5933326
-3.4839427 0 0.16342236
-5.9253292 0 -2.7052968
-3.1777582 0 -0.46643019
-3.4649568 0 0.13783592
-5.7578564 0 -1.6406592
-2.0994694 0 1.8444062
-4.4642959 0 0.20357294
-2.3017755 0 1.8757441
-3.6651947 0 -1.4843318
-5.5327921 0 -1.2558258
-2.7194574 0 -1.716427
-3.0463021 0 -0.86136538
-2.4568954 0 -2.1858366
-3.3897557 0 -2.0522463
-3.6654277 0 -2.9851983
-0.94674617 0 -1.1756299
-4.6355586 0 0.97908956
-5.0427046 0 -0.38233128
-2.7941928 0 -0.20084783
-5.7628565 0 -1.2545936
-2.274508 0 1.0503107
-5.7073622 0 0.80869251
-1.4300927 0 -2.1559534
-5.8017654 0 2.2356925
-3.9062583 0 -2.19436
-3.8766549 0 -0.20276214
-0.22791471 0 -0.44331211
-2.1860938 0 1.8347498
-2.9507563 0 -2.058785
-3.352452 0 -2.0492163
-5.861639 0 0.39937621
-1.9622607 0 0.27268717
-3.5796459 0 1.3744458
-1.8915526 0 1.1710824
-0.36293775 0 -2.8004329
-4.751658 0 1.9031563
-5.1571822 0 0.32365906
-0.043806344 0 -1.265514
-3.7133062 0 0.60446537
-1.8308762 0 -2.8248448
-5.9293089 0 -0.18247841
-0.7280612 0 -0.39379293
-1.2734355 0 1.3201538
-4.0223274 0 -2.1473975
-0.36449209 0 1.9277704
-5.9653578 0 0.64647067
-3.7716703 0 -2.4791284
-4.4189887 0 2.4048331
-0.95001656 0 0.80591583
-2.1589472 0 0.88322461
-1.8086371 0 -0.89135307
-2.173594 0 -1.8806119
-2.9611797 0 1.6596936
-5.6014872 0 -2.3845518
-3.8962822 0 -0.29087856
-1.7518229 0 0.57303435
-3.0447643 0 -0.43378121
-2.003021 0 -0.31643122
-0.81268716 0 2.0557344
-2.4245188 0 1.7104754
-4.190968 0 -1.3298711
-5.9736743 0 1.3132973
-3.7348981 0 -1.9334412
-1.0542853 0 -1.5647486
-5.8233886 0 1.3783022
-0.40514573 0 1.1745347
-1.5512145 0 2.8566024
-2.418777 0 0.74816424
-3.0516393 0 2.1147344
-1.163108 0 1.5607781
-4.5840588 0 1.9111406
-1.243801 0 -0.34829992
-3.8703954 0 -0.26604921
-1.7372777 0 2.9845421
-4.866775 0 1.6511762
-1.6233797 0 -1.1937219
-3.9724491 0 -2.2586496
-3.6856539 0 -1.3250879
-5.181982 0 0.79786968
-3.4114509 0 -1.482911
-0.53300726 0 1.2634362
-4.3552885 0 1.0307986
-5.051888 0 -2.6656098
-5.5839868 0 1.8275639
-5.553071 0 0.90121222
-2.8554235 0 0.17743337
-5.242867 0 -0.2292618
-3.7601662 0 1.4904786
-0.41034195 0 1.2775152
-2.0060813 0 1.6461058
-4.9719033 0 -1.3067257
-1.4987756 0 1.5892463
-3.5603726 0 0.80696458
-2.8915925 0 0.89332169
-0.54672021 0 0.41306645
-2.3491445 0 -0.74450099
-2.7040112 0 -0.062160123
-3.162535 0 -1.2226461
-0.14349221 0 -1.9741234
-2.6985226 0 1.4313259
-5.9907341 0 -1.1550322
-2.6041856 0 0.056382678
-5.7826781 0 1.4836773
-1.3966072 0 -2.702965
-3.1832507 0 -0.6987884
-4.0093837 0 0.12232347
-5.4983854 0 2.1672921
-5.6227059 0 -0.092343777
-2.0679979 0 1.2225665
-0.016244663 0 0.35582983
-2.8788965 0 1.9750448
-5.188961 0 -1.3436476
-5.3017263 0 2.4924369
-2.2690809 0 2.0870221
-1.675011 0 1.9549676
-3.072588 0 -2.9974854
-3.3172348 0 -2.3920088
-1.651819 0 -0.36779958
-1.8365065 0 -1.4153365
-4.2816396 0 0.8121348
-4.993299 0 0.20430006
-2.9433887 0 -0.89855814
-5.6306839 0 -1.4841552
-4.6155577 0 -2.7680559
-2.7896018 0 2.6435819
-0.69953698 0 1.5237995
-0.69450766 0 0.15321003
-5.4785252 0 -1.5939734
-0.21412423 0 1.0687357
-3.0447972 0 -0.55162036
-4.6690669 0 -1.4739532
-5.0776668 0 -1.9907668
-0.87478322 0 -2.1584432
-3.8430936 0 -0.46066034
-3.3792055 0 2.6003828
-2.6663692 0 0.27639937
-5.7139683 0 -2.6110332
-0.020388357 0 2.7715766
-3.2083352 0 0.85037333
-5.3458066 0 1.0699897
-0.44904709 0 0.78625566
-3.3969536 0 1.974216
-1.3784871 0 -2.9775183
-5.6953735 0 0.2885994
-0.61669445 0 1.9944814
-5.8174601 0 -1.0501319
-0.3702589 0 -0.45303616
-5.5923252 0 -2.5952029
-5.135479 0 -1.844432
-0.83622539 0 2.6160595
-2.9762049 0 2.7222204
-4.5487161 0 -2.3672149
-2.497148 0 2.4496012
-2.4521847 0 -1.453534
-3.0293834 0 2.1470697
-1.0183463 0 1.1737899
-3.1186099 0 -0.057494234
-4.0246825 0 -1.9513928
-3.2150884 0 -2.4494588
-0.90395218 0 2.6204281
-0.13607123 0 -0.015920881
-5.5805125 0 2.1098905
-4.3149424 0 1.8931037
-3.2141447 0 1.5240037
-0.12121274 0 1.463251
-4.4153519 0 -1.3112284
-0.76293188 0 -1.3443352
-0.87792033 0 -1.1736047
-4.7807059 0 0.57061362
-3.6796236 0 0.38573524
-2.9204798 0 -1.6889592
-2.9523215 0 2.2665412
-1.1721025 0 1.0926975
-4.9583097 0 1.144946
-2.0063174 0 -2.7118862
-4.9328194 0 -1.7879996
-1.5552763 0 2.423418
-4.2439466 0 -2.0711775
-0.59115618 0 -0.32648131
-1.7323835 0 2.033761
-2.503854 0 0.80907655
-5.8817725 0 2.3746481
-4.414855 0 0.097690865
-0.60025012 0 2.4278059
-2.890142 0 1.8185273
-2.3139145 0 0.41692489
-5.8899136 0 -2.3967884
-4.7367496 0 1.815612
-2.8791049 0 0.62478846
-3.5320675 0 1.2737768
-1.5995897 0 0.38300496
-3.2177427 0 0.96839386
-1.967039 0 -2.1398339
-2.1624207 0 -2.7904291
-1.0180326 0 1.4441828
-4.6550875 0 2.5643463
-5.4889374 0 1.462148
-4.2825141 0 2.4819229
-1.9137378 0 -0.79727608
-3.1633148 0 2.978821
-5.7108684 0 -0.41229287
-0.47687826 0 -0.78665102
-2.413666 0 0.36843675
-0.69333386 0 0.25034755
-0.27419186 0 1.5773294
-3.1625574 0 1.0612684
-2.29125 0 -0.49016428
-5.2155461 0 2.2874351
-4.1793919 0 -2.5242581
-5.7739439 0 -1.5271151
-5.731586 0 1.3297669
-0.55617172 0 -2.7412901
-2.1294737 0 2.1363328
-2.8663473 0 2.6125858
-3.3670423 0 0.59785503
-0.5217011 0 0.91066808
-2.644238 0 -0.96794969
-3.6245666 0 0.1664882
-2.1994364 0 0.32189563
-1.2479528 0 -2.0589604
-4.3021832 0 0.65145934
-0.96171665 0 -2.4823973
-0.44429672 0 -2.5201685
-4.7169623 0 -2.9046063
-3.9421337 0 -0.42614034
-5.1378436 0 -2.5289528
-0.95917976 0 2.7773905
-2.8950791 0 2.6336012
-3.2280555 0 1.5795076
-3.8718467 0 -0.41238615
-1.9897676 0 2.1110578
-3.2926862 0 -1.087815
-2.2574811 0 -1.1293094
-1.2978181 0 2.6039772
-1.107031 0 -2.7621663
-1.9593116 0 -0.181206
-1.0172175 0 -1.9223646
-0.5719986 0 2.4758065
-5.839201 0 1.1289665
-2.9982162 0 0.40610281
-3.8229883 0 -1.8343307
-2.0451038 0 -0.74341685
-4.2207341 0 -2.8746514
-0.47935268 0 -1.364367
-5.6873074 0 -1.8251494
-5.2116399 0 -1.8548537
-5.5740519 0 -2.3641479
-3.418781 0 1.3209815
-2.370394 0 1.891843
-4.6283269 0 1.3986278
-5.4405322 0 1.9002963
-3.1091936 0 1.0483081
-4.5960274 0 -1.3250605
-4.3453302 0 -2.2507219
-1.0740644 0 -0.72989869
-4.7243633 0 0.18873134
-2.4340708 0 -0.15617277
-1.1623664 0 0.40961346
-3.8043294 0 0.5826546
-1.5880153 0 2.2548037
-4.3852706 0 -2.8384471
-2.1858635 0 1.4446423
-4.2824798 0 2.1612043
-0.93260062 0 -0.11744291
-5.4340444 0 0.91733503
-0.89384156 0 1.3230472
-1.2713042 0 1.5157853
-1.5836498 0 -0.41791403
-2.4028766 0 -0.50523967
-3.5681858 0 2.9067287
-2.0777934 0 2.0284839
-1.7546874 0 2.7048357
-4.6439719 0 2.6792014
-2.9663808 0 -1.8262321
-3.2012668 0 1.510295
-5.0359368 0 0.5565396
-1.6820312 0 0.81981951
-4.7136016 0 -1.6642826
-5.5494299 0 1.4109104
-0.55990911 0 1.9515458
-0.37336645 0 -1.6848166
-4.4303341 0 -2.5110192
-3.8400056 0 2.4784617
-3.1984084 0 -2.9122043
-0.85087252 0 0.062969193
-3.8714626 0 -0.66065478
-4.9845419 0 1.8939925
-0.62418067 0 0.91915518
-3.9527459 0 1.1457561
-0.77456665 0 0.15645009
-4.6776581 0 -0.2060407
-2.0472915 0 -1.132975
-1.06933 0 1.3818954
-0.026253238 0 0.1140061
-5.8506618 0 0.44675016
-5.9766002 0 0.29746261
-1.29791 0 0.98919058
-5.0858951 0 -1.0377195
-0.92420548 0 0.86096317
-3.2157178 0 -0.96416146
-3.5286181 0 1.254043
-3.9406993 0 -0.75909156
-0.20664945 0 2.1841428
-2.9704401 0 -2.2083983
-3.1984525 0 2.6580901
-4.0919528 0 -2.0435131
-4.6868777 0 0.92120707
-0.66525912 0 0.1109913
-2.7406981 0 -1.2771485
-4.4626245 0 -2.8305891
-0.39094731 0 0.72285861
-2.8990333 0 2.6387739
-4.4172163 0 2.0893545
-2.7855022 0 -1.5530615
-1.2022989 0 -0.94209945
-0.51847917 0 0.31943762
-4.6055055 0 0.34573081
-0.44791967 0 -2.9149716
-0.66990227 0 2.9463151
-3.2241993 0 -1.5855173
-2.8853772 0 1.9890287
-4.3310943 0 -1.3628896
-3.6086423 0 -0.84007543
-1.7873513 0 1.8024813
-4.8934741 0 1.3641133
-0.77767307 0 -2.9717216
-1.4165484 0 -0.92276907
-2.1080101 0 2.2064459
-1.937953 0 1.860472
-1.830583 0 0.74581009
-5.0016174 0 -2.826622
-2.9796748 0 -0.35695034
-5.7054543 0 -0.09588699
-1.385605 0 -1.2275747
-4.9905677 0 2.9604118
-1.7187941 0 -1.9524885
-1.6622375 0 0.24731806
-3.5077758 0 -1.7661073
-1.9206678 0 0.61984783
-5.6416116 0 1.0856879
-1.1332319 0 2.9942164
-0.78647566 0 1.0682924
-1.5003763 0 0.94668931
-1.6921504 0 -1.7187619
-4.1472998 0 1.9375716
-4.0681233 0 -2.545218
-1.9731005 0 0.86113834
-2.4677367 0 0.23106375
-5.9999514 0 -0.56996566
-1.239647 0 1.824159
-3.4110229 0 2.5791612
-3.3994558 0 1.8240007
-5.5360403 0 -0.92156732
-1.4294192 0 -0.71193647
-4.8669429 0 2.9975893
-2.7420864 0 -0.1426394
-1.8325224 0 1.1188082
-3.5547991 0 0.84886485
-4.0169268 0 -1.5392554
-5.156858 0 -2.0504518
-2.805176 0 0.12826391
-1.9634981 0 1.599314
-5.6114993 0 0.82055223
-1.4546342 0 -0.88786566
-2.8785071 0 -0.028828934
-2.8736858 0 1.2038538
-3.1589646 0 0.36542913
-5.3965812 0 -0.76087266
-1.0943106 0 -1.1562918
-4.1728215 0 2.1715345
-2.2737246 0 -1.8922887
-2.5302525 0 0.31277078
-5.7288804 0 1.501273
-1.3699849 0 -0.40448496
-3.1457162 0 1.7411684
-3.2033741 0 -1.4488951
-5.6110821 0 -2.0728829
-0.3419401 0 -1.4742703
-1.8636854 0 2.8841212
-4.1762691 0 -0.87240076
-2.5193384 0 -0.26326841
-0.3039158 0 0.63588512
-0.92945737 0 -0.8142516
-3.9320035 0 1.7199352
-4.7409735 0 -1.0648723
-2.2233102 0 1.8466522
-5.1211004 0 1.2079145
-3.2668662 0 -0.26746726
-0.21540689 0 -2.8741753
-5.9836493 0 1.5672941
-1.7284507 0 -1.3972752
-2.2549875 0 2.4923825
-3.5267577 0 -0.45193005
-5.155261 0 -2.0964701
-2.5951312 0 2.313868
-4.7248759 0 -1.1329532
-2.4181802 0 2.7575793
-4.8340092 0 1.5531753
-5.3689437 0 1.2806141
-5.1172943 0 0.096187562
-2.2518826 0 0.17143013
