# .PCD v0.7 - Point Cloud Data file format
VERSION 0.7
FIELDS x y z
SIZE 4 4 4
TYPE F F F
COUNT 1 1 1
WIDTH 1797
HEIGHT 1
VIEWPOINT 0 0 0 1 0 0 0
POINTS 1797
DATA ascii
0.74757922 -0.5 -1.3112721
0.84185892 -0.5 -1.348309
0.94584966 -0.5 -1.354452
1.0577461 -0.5 -1.3603516
1.1357656 -0.5 -1.3589852
1.2557718 -0.5 -1.3365004
1.3349471 -0.5 -1.338622
1.4491278 -0.5 -1.3495377
1.5357083 -0.5 -1.35809
1.6508884 -0.5 -1.3402059
1.746066 -0.5 -1.3655348
1.8507341 -0.5 -1.3518524
1.9686992 -0.5 -1.3435792
2.0599346 -0.5 -1.3322306
2.134563 -0.5 -1.3578176
2.2793732 -0.5 -1.3515353
2.3285229 -0.5 -1.3702517
2.4346809 -0.5 -1.3433369
2.5474522 -0.5 -1.3382338
2.6412933 -0.5 -1.3380407
2.7136762 -0.5 -1.3446591
2.8504107 -0.5 -1.3608562
2.9388902 -0.5 -1.3434294
-2.9517868 0.5 -1.3584124
-2.8634059 0.5 -1.3414749
-2.7544158 0.5 -1.3505877
-2.6511524 0.5 -1.37008
-2.5406799 0.5 -1.3028653
-2.4533989 0.5 -1.3726717
-2.348073 0.5 -1.3395342
-2.2412002 0.5 -1.3370628
-2.1635895 0.5 -1.3919561
-2.0494797 0.5 -1.3757275
-1.9470649 0.5 -1.3408729
-1.8515601 0.5 -1.3403288
-1.7413889 0.5 -1.3343951
-1.6615572 0.5 -1.3400689
-1.5440439 0.5 -1.3817133
-1.4377294 0.5 -1.328655
-1.3478075 0.5 -1.3419942
-1.2504877 0.5 -1.3357209
-1.159108 0.5 -1.3460904
-1.0480595 0.5 -1.361586
-0.96795833 0.5 -1.3598226
-0.85743904 0.5 -1.3605744
-0.74834925 0.5 -1.3585885
-0.65122837 0.5 -1.347124
-0.54322594 0.5 -1.3578916
-0.5 0.53913778 -1.3402475
0.53286326 0.51703143 -1.355221
0.65022427 0.5 -1.3382097
0.74430883 0.5 -1.3441594
0.83791673 0.5 -1.3594337
0.96538126 0.5 -1.3620871
1.0545666 0.5 -1.3325044
1.1563756 0.5 -1.3423901
1.2380258 0.5 -1.3579235
1.369306 0.5 -1.3442329
1.4381975 0.5 -1.3745733
1.5606761 0.5 -1.3620167
1.6584518 0.5 -1.3518046
1.7507356 0.5 -1.3760015
1.8368989 0.5 -1.3475423
1.9427532 0.5 -1.3376449
2.0578244 0.5 -1.3512067
2.1461794 0.5 -1.358942
2.2339447 0.5 -1.338672
2.3741624 0.5 -1.3395725
2.4554074 0.5 -1.3680117
2.5526335 0.5 -1.3574883
2.6627316 0.5 -1.3467191
2.7363398 0.5 -1.3357278
2.8543115 0.5 -1.3514886
2.959655 0.5 -1.3335804
-0.5 0.66901255 -1.3391348
0.5 0.64835536 -1.3488195
-0.5 0.73219746 -1.3263849
0.5 0.73974693 -1.3547343
-0.5 0.85321063 -1.3640566
0.5 0.829422 -1.363906
-0.5 0.94700271 -1.3479047
0.5 0.94805092 -1.3709413
-0.5 1.0603632 -1.3656877
0.5 1.0458411 -1.3517095
-0.5 1.1519897 -1.3428724
0.5 1.1374683 -1.3626242
-0.5 1.2300551 -1.3421832
0.5 1.2431135 -1.3543266
-0.5 1.3459375 -1.3355827
0.5 1.3559908 -1.3560135
-0.5 1.48932 -1.3490496
0.5 1.4486859 -1.3499873
-0.5 1.5529263 -1.3459318
0.5 1.5312471 -1.3438827
-0.5 1.6322465 -1.3480859
0.5 1.6504048 -1.3670205
-0.5 1.7585298 -1.3570457
0.5 1.7388088 -1.3533087
-0.5 1.8598117 -1.3489492
0.5 1.8425821 -1.3447359
-0.5 1.9512628 -1.3687264
0.5 1.9523951 -1.3497912
-0.5 2.0260129 -1.347044
0.5 2.0466089 -1.3378017
-0.5 2.1524386 -1.3484213
0.5 2.1756604 -1.3310937
-0.5 2.2628107 -1.3459235
0.5 2.236928 -1.3365923
-0.5 2.3616352 -1.3335595
0.5 2.3355303 -1.3530816
-0.5 2.4509325 -1.3436242
0.5 2.442261 -1.3502133
-0.5 2.5688784 -1.3466357
0.5 2.5561917 -1.3455654
-0.5 2.6432772 -1.338715
0.5 2.6443062 -1.3590211
-0.5 2.7539554 -1.3556478
0.5 2.7459798 -1.3393312
-0.5 2.8578596 -1.3423589
0.5 2.8528435 -1.3479654
-0.5 2.9552619 -1.3412499
0.5 2.9590137 -1.3547721
-0.5 -2.966228 -1.2552593
0.5 -2.9362743 -1.2665447
-0.5 -2.8412199 -1.280652
0.5 -2.8336308 -1.2515682
-0.5 -2.7597051 -1.2422272
0.5 -2.7492497 -1.2462615
-0.5 -2.6478136 -1.2384018
0.5 -2.6354766 -1.2309042
-0.5 -2.5506461 -1.2587074
0.5 -2.5568068 -1.2432045
-0.5 -2.4544811 -1.2542975
0.5 -2.4564199 -1.2426637
-0.5 -2.3520398 -1.258189
0.5 -2.346966 -1.2611195
-0.5 -2.2355921 -1.2489269
0.5 -2.2606838 -1.2526144
-0.5 -2.1466496 -1.2588836
0.5 -2.1293643 -1.2532496
-0.5 -2.0570054 -1.2190764
0.5 -2.0451245 -1.2530286
-0.5 -1.950501 -1.2507669
0.5 -1.9494231 -1.2375801
-0.5 -1.855792 -1.2513297
0.5 -1.8552229 -1.2364984
-0.5 -1.7572379 -1.2461567
0.5 -1.7345425 -1.2558799
-0.5 -1.6597378 -1.2539533
0.5 -1.6657782 -1.2454652
-0.5 -1.5351371 -1.2455091
0.5 -1.5305754 -1.2433485
-0.5 -1.4375867 -1.2583842
0.5 -1.4504194 -1.2499976
-0.5 -1.3596233 -1.2578336
0.5 -1.361791 -1.2672526
-0.5 -1.2621772 -1.2420431
0.5 -1.2600461 -1.2484616
-0.5 -1.1401454 -1.2461194
0.5 -1.1498566 -1.2488725
-0.5 -1.0553511 -1.256887
0.5 -1.0504856 -1.2667081
-0.5 -0.9409849 -1.2689763
0.5 -0.95899963 -1.2447863
-0.5 -0.85410482 -1.2699848
0.5 -0.84534526 -1.2597861
-0.5 -0.75470543 -1.2490362
0.5 -0.75934267 -1.2366773
-0.5 -0.64922929 -1.245827
0.5 -0.64582765 -1.2512285
-0.5 -0.55109787 -1.2730566
0.5 -0.55592483 -1.2479464
-2.9323323 -0.5 -1.2498626
-2.8408458 -0.5 -1.2333401
-2.7412887 -0.5 -1.2692237
-2.6372204 -0.5 -1.230082
-2.5476651 -0.5 -1.2383529
-2.4667606 -0.5 -1.244666
-2.3255503 -0.5 -1.2472051
-2.2386458 -0.5 -1.2487414
-2.1665277 -0.5 -1.2735566
-2.0529282 -0.5 -1.2561792
-1.9552515 -0.5 -1.2436618
-1.8506434 -0.5 -1.2333282
-1.748194 -0.5 -1.231915
-1.6570477 -0.5 -1.2367967
-1.5545233 -0.5 -1.2534521
-1.4553603 -0.5 -1.2451407
-1.3408326 -0.5 -1.2654092
-1.2823976 -0.5 -1.2556937
-1.1504381 -0.5 -1.2408005
-1.0542518 -0.5 -1.2482748
-0.94594002 -0.5 -1.2563181
-0.84703487 -0.5 -1.2586943
-0.75166982 -0.5 -1.2449304
-0.64721489 -0.5 -1.2532305
-0.54769957 -0.5 -1.2547665
0.54639232 -0.5 -1.2345431
0.611063 -0.5 -1.2505484
0.75146854 -0.5 -1.2491337
0.84523284 -0.5 -1.2482166
0.95331806 -0.5 -1.2506307
1.0616416 -0.5 -1.2487755
1.1610378 -0.5 -1.2407492
1.2526786 -0.5 -1.2360218
1.3479433 -0.5 -1.2722329
1.4591875 -0.5 -1.2660168
1.5481074 -0.5 -1.2409111
1.6506562 -0.5 -1.246447
1.7582378 -0.5 -1.2379614
1.8738844 -0.5 -1.2419635
1.9625665 -0.5 -1.2373312
2.0548108 -0.5 -1.2815292
2.1789682 -0.5 -1.2440658
2.2440023 -0.5 -1.2657712
2.3399508 -0.5 -1.2448074
2.4574857 -0.5 -1.2569104
2.5472276 -0.5 -1.2552874
2.6652861 -0.5 -1.2487828
2.7461641 -0.5 -1.2405425
2.8564277 -0.5 -1.2488751
2.9679585 -0.5 -1.2379225
-2.9595039 0.5 -1.2335008
-2.865725 0.5 -1.2528951
-2.7532129 0.5 -1.263281
-2.6679463 0.5 -1.2377822
-2.5511663 0.5 -1.2578481
-2.4487078 0.5 -1.256898
-2.3452616 0.5 -1.2569405
-2.2409651 0.5 -1.2678844
-2.1357737 0.5 -1.2403933
-2.040767 0.5 -1.2287314
-1.9389664 0.5 -1.2592561
-1.8579541 0.5 -1.2802278
-1.7373754 0.5 -1.2319779
-1.6205635 0.5 -1.2269297
-1.5598199 0.5 -1.2364788
-1.4379921 0.5 -1.2456722
-1.3762314 0.5 -1.2383155
-1.2669811 0.5 -1.255814
-1.1495168 0.5 -1.2714431
-1.0527815 0.5 -1.2583718
-0.94310844 0.5 -1.2509156
-0.84780258 0.5 -1.2490391
-0.74635726 0.5 -1.2503662
-0.65000308 0.5 -1.245155
-0.55132622 0.5 -1.2740185
-0.5 0.5688234 -1.2401756
0.52661264 0.51174748 -1.2396377
0.65232956 0.5 -1.2490873
0.74733061 0.5 -1.2545441
0.83527207 0.5 -1.2485493
0.96449494 0.5 -1.2417748
1.063606 0.5 -1.2546294
1.1427597 0.5 -1.2415953
1.260373 0.5 -1.2435354
1.3597647 0.5 -1.2387536
1.4481958 0.5 -1.2583866
1.5471743 0.5 -1.2614441
1.6660318 0.5 -1.2372346
1.7301787 0.5 -1.2368523
1.8395648 0.5 -1.2437661
1.9450248 0.5 -1.2592473
2.0578156 0.5 -1.2330042
2.1411362 0.5 -1.2405319
2.2819593 0.5 -1.2728508
2.3542731 0.5 -1.2442328
2.4353111 0.5 -1.2637954
2.5496581 0.5 -1.2613991
2.6594992 0.5 -1.2618198
2.7698157 0.5 -1.2419485
2.8537061 0.5 -1.2532176
2.9739575 0.5 -1.2423778
-0.5 0.65655065 -1.2359039
0.5 0.65249908 -1.2261302
-0.5 0.75252604 -1.2559727
0.5 0.75230134 -1.2440175
-0.5 0.85361671 -1.2350863
0.5 0.84281462 -1.2562264
-0.5 0.934062 -1.2510598
0.5 0.94530994 -1.2399993
-0.5 1.0366079 -1.2601851
0.5 1.0628662 -1.2672875
-0.5 1.1438669 -1.2657391
0.5 1.1678464 -1.2753494
-0.5 1.2504668 -1.2429435
0.5 1.2434562 -1.2299527
-0.5 1.3754809 -1.2534326
0.5 1.3540287 -1.2489475
-0.5 1.4851211 -1.2205092
0.5 1.4572572 -1.2513472
-0.5 1.5578111 -1.2340105
0.5 1.554112 -1.2378541
-0.5 1.6777385 -1.2401026
0.5 1.6736839 -1.2490782
-0.5 1.7461184 -1.2367512
0.5 1.758601 -1.2453852
-0.5 1.8640251 -1.2422851
0.5 1.8580061 -1.2577451
-0.5 1.9547995 -1.2318574
0.5 1.9429998 -1.2554902
-0.5 2.0543811 -1.233291
0.5 2.0411699 -1.2661221
-0.5 2.1453466 -1.2400638
0.5 2.1464212 -1.2650628
-0.5 2.233155 -1.2593566
0.5 2.2554405 -1.2687742
-0.5 2.3529296 -1.2391402
0.5 2.3578486 -1.2473509
-0.5 2.4545417 -1.2480859
0.5 2.4521017 -1.2567338
-0.5 2.5470016 -1.2457319
0.5 2.5718818 -1.2503257
-0.5 2.6590028 -1.2545072
0.5 2.6467772 -1.2170994
-0.5 2.7500148 -1.2347343
0.5 2.7298465 -1.2662101
-0.5 2.8525863 -1.238003
0.5 2.8411458 -1.2468659
-0.5 2.951683 -1.2422535
0.5 2.9429295 -1.2510366
-0.5 -2.9534256 -1.1454431
0.5 -2.9425011 -1.1307828
-0.5 -2.8370903 -1.1451925
0.5 -2.8548517 -1.1620457
-0.5 -2.7642019 -1.1874961
0.5 -2.7512369 -1.1505572
-0.5 -2.6403918 -1.1391129
0.5 -2.6325221 -1.1553555
-0.5 -2.5713022 -1.1341528
0.5 -2.5451586 -1.1567723
-0.5 -2.4686413 -1.160651
0.5 -2.4613383 -1.1384352
-0.5 -2.3537538 -1.1441604
0.5 -2.3734384 -1.1360821
-0.5 -2.2542055 -1.1401615
0.5 -2.2463608 -1.1627692
-0.5 -2.1498692 -1.1425729
0.5 -2.1655555 -1.1427876
-0.5 -2.043731 -1.1507666
0.5 -2.021667 -1.1576792
-0.5 -1.9352286 -1.1410787
0.5 -1.9349127 -1.1521491
-0.5 -1.8593398 -1.1470307
0.5 -1.8503445 -1.1530687
-0.5 -1.7657673 -1.1507984
0.5 -1.7556825 -1.1357193
-0.5 -1.6562494 -1.1352922
0.5 -1.6449591 -1.1583169
-0.5 -1.554898 -1.1580966
0.5 -1.5741507 -1.1107426
-0.5 -1.439639 -1.1459434
0.5 -1.4692616 -1.1468831
-0.5 -1.3541088 -1.1460216
0.5 -1.3765502 -1.1573076
-0.5 -1.2529259 -1.14247
0.5 -1.2612593 -1.184781
-0.5 -1.1371967 -1.1550852
0.5 -1.1565274 -1.1596723
-0.5 -1.0440705 -1.1527562
0.5 -1.0498588 -1.1313961
-0.5 -0.94346911 -1.1442651
0.5 -0.93999088 -1.1496173
-0.5 -0.84334463 -1.1541272
0.5 -0.8499167 -1.1425139
-0.5 -0.73787189 -1.1427093
0.5 -0.75694561 -1.128222
-0.5 -0.64462405 -1.1550511
0.5 -0.65140611 -1.1352358
-0.5 -0.55877078 -1.1520083
0.5 -0.53589368 -1.1647792
-2.9328055 -0.5 -1.1446723
-2.8396735 -0.5 -1.1208471
-2.7585437 -0.5 -1.1511022
-2.6553133 -0.5 -1.1514677
-2.548923 -0.5 -1.151395
-2.459281 -0.5 -1.1647308
-2.3474765 -0.5 -1.1422237
-2.2311039 -0.5 -1.175384
-2.1397543 -0.5 -1.1569072
-2.047591 -0.5 -1.15202
-1.9621198 -0.5 -1.1425782
-1.8444691 -0.5 -1.1500337
-1.7415258 -0.5 -1.1366366
-1.6362362 -0.5 -1.1497576
-1.566888 -0.5 -1.1628268
-1.4520767 -0.5 -1.149404
-1.3540527 -0.5 -1.1680349
-1.245568 -0.5 -1.1554794
-1.1359779 -0.5 -1.1508151
-1.0511206 -0.5 -1.1490446
-0.95619965 -0.5 -1.1484308
-0.84988868 -0.5 -1.1430153
-0.7627458 -0.5 -1.1440855
-0.65287352 -0.5 -1.1557599
-0.54744816 -0.5 -1.1489888
0.55837697 -0.5 -1.137396
0.66008401 -0.5 -1.1549234
0.72702432 -0.5 -1.1550843
0.85256416 -0.5 -1.1519603
0.95115077 -0.5 -1.159747
1.0524511 -0.5 -1.16093
1.1253378 -0.5 -1.1681297
1.2409401 -0.5 -1.1519549
1.3651971 -0.5 -1.1446093
1.438136 -0.5 -1.1607251
1.5513217 -0.5 -1.1568156
1.6440147 -0.5 -1.1623774
1.7696812 -0.5 -1.1602753
1.8713243 -0.5 -1.1555855
1.9526001 -0.5 -1.1444807
2.0379541 -0.5 -1.1494223
2.1539881 -0.5 -1.1422945
2.2278802 -0.5 -1.1414021
2.3179512 -0.5 -1.1678476
2.4491997 -0.5 -1.140173
2.5445936 -0.5 -1.1505275
2.6569307 -0.5 -1.1258442
2.7531366 -0.5 -1.1440367
2.8357074 -0.5 -1.1501648
2.9586997 -0.5 -1.1379244
-2.9453275 0.5 -1.1659107
-2.861248 0.5 -1.1833627
-2.750361 0.5 -1.1523199
-2.6433802 0.5 -1.12919
-2.5320277 0.5 -1.1449367
-2.4154658 0.5 -1.1180997
-2.3587494 0.5 -1.1669817
-2.2542391 0.5 -1.1779367
-2.1660001 0.5 -1.1509342
-2.0678174 0.5 -1.1460271
-1.9762685 0.5 -1.1264758
-1.8415974 0.5 -1.1428734
-1.7443498 0.5 -1.1624787
-1.6422683 0.5 -1.1585478
-1.5633256 0.5 -1.149246
-1.4575609 0.5 -1.1721667
-1.332395 0.5 -1.1470672
-1.2367041 0.5 -1.1461962
-1.1736939 0.5 -1.1355791
-1.0426884 0.5 -1.1570321
-0.95137805 0.5 -1.1550936
-0.85711479 0.5 -1.1510698
-0.75034511 0.5 -1.1607133
-0.64253432 0.5 -1.1511329
-0.55517662 0.5 -1.145761
-0.5 0.54030734 -1.1440364
0.5142622 0.51454663 -1.14498
0.64729327 0.5 -1.1498441
0.75637549 0.5 -1.1586919
0.8672874 0.5 -1.1559035
0.93944412 0.5 -1.1538321
1.0484154 0.5 -1.1501909
1.1490619 0.5 -1.1435891
1.2619323 0.5 -1.1539567
1.3430957 0.5 -1.1489702
1.4386917 0.5 -1.1497278
1.5660278 0.5 -1.1539251
1.6439317 0.5 -1.1574558
1.7679186 0.5 -1.1322238
1.8636179 0.5 -1.155503
1.9483742 0.5 -1.1584724
2.0590088 0.5 -1.1577011
2.1733253 0.5 -1.1660246
2.253917 0.5 -1.1521082
2.3379319 0.5 -1.1474435
2.4535346 0.5 -1.1493055
2.5351481 0.5 -1.1538334
2.643949 0.5 -1.1370939
2.7484181 0.5 -1.1540823
2.8420353 0.5 -1.1543318
2.9451289 0.5 -1.1439537
-0.5 0.65438795 -1.1359425
0.5 0.64680976 -1.1393311
-0.5 0.7567364 -1.139627
0.5 0.74082726 -1.1474406
-0.5 0.84505719 -1.1492056
0.5 0.85431969 -1.1488248
-0.5 0.91380244 -1.1410631
0.5 0.94204015 -1.1338118
-0.5 1.063738 -1.1470006
0.5 1.0350347 -1.1344697
-0.5 1.1449118 -1.1450485
0.5 1.1497394 -1.1443316
-0.5 1.2530806 -1.1623201
0.5 1.2747406 -1.1406672
-0.5 1.3589146 -1.1554743
0.5 1.3635817 -1.1540254
-0.5 1.4481287 -1.1503311
0.5 1.449028 -1.128394
-0.5 1.5505544 -1.1766386
0.5 1.5558721 -1.1333262
-0.5 1.6474639 -1.1551141
0.5 1.6399696 -1.1522247
-0.5 1.7153804 -1.1438987
0.5 1.7363393 -1.151826
-0.5 1.8363044 -1.1396071
0.5 1.8660324 -1.1439449
-0.5 1.937623 -1.1475974
0.5 1.9470667 -1.1453106
-0.5 2.0278189 -1.1553532
0.5 2.0585186 -1.1517838
-0.5 2.1347702 -1.1457806
0.5 2.1740923 -1.1404634
-0.5 2.2596879 -1.1514039
0.5 2.2205052 -1.1368802
-0.5 2.3446183 -1.1573113
0.5 2.3617721 -1.1445725
-0.5 2.4459271 -1.1410913
0.5 2.4526792 -1.13491
-0.5 2.5524573 -1.1494589
0.5 2.5502682 -1.14631
-0.5 2.6489911 -1.1612005
0.5 2.6289132 -1.1312735
-0.5 2.7470067 -1.12858
0.5 2.7479613 -1.1436113
-0.5 2.8468549 -1.1415569
0.5 2.8415406 -1.1456337
-0.5 2.9572406 -1.1664841
0.5 2.9485264 -1.1366298
-0.5 -2.9762669 -1.0629523
0.5 -2.9605103 -1.0315328
-0.5 -2.8532419 -1.0578771
0.5 -2.8414061 -1.0161775
-0.5 -2.7566056 -1.048425
0.5 -2.7751141 -1.0536469
-0.5 -2.6585674 -1.0396651
0.5 -2.64552 -1.0461321
-0.5 -2.5588531 -1.0309484
0.5 -2.5306394 -1.0504237
-0.5 -2.459326 -1.0392045
0.5 -2.4402251 -1.0409154
-0.5 -2.3494065 -1.0530604
0.5 -2.3359118 -1.0401306
-0.5 -2.2519057 -1.0609639
0.5 -2.254689 -1.047419
-0.5 -2.1476512 -1.0444049
0.5 -2.1469409 -1.0448241
-0.5 -2.0325258 -1.0502168
0.5 -2.0495338 -1.0357159
-0.5 -1.9708389 -1.0415736
0.5 -1.9327905 -1.0381832
-0.5 -1.8617351 -1.0495591
0.5 -1.8684094 -1.0482765
-0.5 -1.7475876 -1.0331501
0.5 -1.7646948 -1.0562297
-0.5 -1.6433498 -1.0513686
0.5 -1.6720052 -1.045264
-0.5 -1.5358496 -1.0691445
0.5 -1.5452505 -1.0388383
-0.5 -1.4626433 -1.0416149
0.5 -1.4616272 -1.0333166
-0.5 -1.3521867 -1.0680686
0.5 -1.3719293 -1.0588827
-0.5 -1.2431163 -1.0597556
0.5 -1.2551432 -1.0581429
-0.5 -1.1577049 -1.0365633
0.5 -1.1449225 -1.0531642
-0.5 -1.0415574 -1.0527203
0.5 -1.0568895 -1.0344307
-0.5 -0.95586085 -1.0611203
0.5 -0.92647952 -1.0492227
-0.5 -0.84639943 -1.0621635
0.5 -0.87937719 -1.0448825
-0.5 -0.7415368 -1.0610623
0.5 -0.74654305 -1.0435008
-0.5 -0.63152379 -1.0343646
0.5 -0.6555956 -1.0359019
-0.5 -0.53247982 -1.0583766
0.5 -0.53421211 -1.0344743
-2.9660385 -0.5 -1.0472177
-2.8628409 -0.5 -1.0459737
-2.7485514 -0.5 -1.0590451
-2.6494622 -0.5 -1.0562072
-2.5550609 -0.5 -1.0682043
-2.4581361 -0.5 -1.0588207
-2.3511612 -0.5 -1.0544327
-2.227376 -0.5 -1.0406049
-2.155232 -0.5 -1.0574354
-2.0204923 -0.5 -1.0315956
-1.940784 -0.5 -1.0373831
-1.8443285 -0.5 -1.0272508
-1.765823 -0.5 -1.0454106
-1.6412886 -0.5 -1.0427909
-1.5685655 -0.5 -1.046245
-1.4546282 -0.5 -1.0475504
-1.3395905 -0.5 -1.0594093
-1.2265543 -0.5 -1.0549715
-1.1354456 -0.5 -1.0562142
-1.0434496 -0.5 -1.0247964
-0.94305176 -0.5 -1.0510651
-0.83329159 -0.5 -1.0442646
-0.73435754 -0.5 -1.0601736
-0.66810089 -0.5 -1.0556433
-0.56289804 -0.5 -1.0449884
0.56406051 -0.5 -1.0396373
0.65791678 -0.5 -1.0323613
0.75313079 -0.5 -1.0470508
0.8625589 -0.5 -1.0811121
0.92938262 -0.5 -1.0351986
1.0418806 -0.5 -1.0483937
1.1870965 -0.5 -1.0599705
1.2488286 -0.5 -1.0518401
1.354266 -0.5 -1.0480671
1.4493579 -0.5 -1.0700209
1.5677162 -0.5 -1.0478617
1.6573373 -0.5 -1.0672938
1.7214905 -0.5 -1.0429467
1.867004 -0.5 -1.0565599
1.9361187 -0.5 -1.0500478
2.0401866 -0.5 -1.0415051
2.146471 -0.5 -1.0550885
2.2442014 -0.5 -1.0544645
2.3422048 -0.5 -1.0535208
2.4589863 -0.5 -1.0758594
2.5499365 -0.5 -1.0605764
2.6665337 -0.5 -1.0451782
2.7376742 -0.5 -1.0368999
2.8367774 -0.5 -1.0556378
2.9496553 -0.5 -1.0523329
-2.9404545 0.5 -1.0591497
-2.8629403 0.5 -1.0484948
-2.7593026 0.5 -1.0597675
-2.6736155 0.5 -1.0372602
-2.5503325 0.5 -1.0339994
-2.4369524 0.5 -1.0598245
-2.3695953 0.5 -1.0612471
-2.279484 0.5 -1.0360291
-2.1421034 0.5 -1.0496724
-2.053803 0.5 -1.0632929
-1.9480742 0.5 -1.0521898
-1.8565557 0.5 -1.0586088
-1.7531797 0.5 -1.0534583
-1.6534663 0.5 -1.0437244
-1.5595572 0.5 -1.0648354
-1.4546963 0.5 -1.0702382
-1.3474863 0.5 -1.0462141
-1.2438842 0.5 -1.0424169
-1.1531198 0.5 -1.0719026
-1.0670151 0.5 -1.0289134
-0.94488525 0.5 -1.0313376
-0.86389995 0.5 -1.058412
-0.73304409 0.5 -1.0461679
-0.64321643 0.5 -1.0273918
-0.56297356 0.5 -1.0459549
-0.5 0.56214374 -1.0281984
0.53196239 0.5227291 -1.060285
0.64097583 0.5 -1.0574229
0.75487137 0.5 -1.0488007
0.84527701 0.5 -1.0337266
0.9427309 0.5 -1.0723392
1.0367489 0.5 -1.0548005
1.1482137 0.5 -1.0395626
1.2168394 0.5 -1.0501457
1.3618578 0.5 -1.0575435
1.4292153 0.5 -1.0514507
1.5490564 0.5 -1.057031
1.6367301 0.5 -1.0608623
1.7386347 0.5 -1.0537809
1.8508292 0.5 -1.0548273
1.9495347 0.5 -1.0309807
2.0548465 0.5 -1.0705169
2.158792 0.5 -1.0794733
2.2528727 0.5 -1.057254
2.3489692 0.5 -1.0498395
2.4617136 0.5 -1.0533932
2.5463536 0.5 -1.0521342
2.6348636 0.5 -1.0536641
2.7420719 0.5 -1.0649996
2.869628 0.5 -1.0597615
2.9414449 0.5 -1.0612246
-0.5 0.6646663 -1.0544585
0.5 0.66411906 -1.0886185
-0.5 0.72386414 -1.0529889
0.5 0.76135039 -1.0530248
-0.5 0.83615601 -1.0518905
0.5 0.85445547 -1.0479748
-0.5 0.97267121 -1.0601155
0.5 0.94571465 -1.0356547
-0.5 1.0812538 -1.0462939
0.5 1.0382379 -1.0537865
-0.5 1.1621921 -1.0581758
0.5 1.1384434 -1.0472624
-0.5 1.2455633 -1.0626705
0.5 1.2572924 -1.0235039
-0.5 1.3257325 -1.0591208
0.5 1.3544723 -1.0450082
-0.5 1.4747908 -1.0673175
0.5 1.4438895 -1.0567997
-0.5 1.5641093 -1.0429516
0.5 1.5515075 -1.0511398
-0.5 1.6474177 -1.0481771
0.5 1.6606784 -1.0626832
-0.5 1.7388941 -1.0791755
0.5 1.7544287 -1.0599852
-0.5 1.8490549 -1.044979
0.5 1.8406029 -1.0368695
-0.5 1.9544226 -1.0607432
0.5 1.9335384 -1.056154
-0.5 2.0340929 -1.0847931
0.5 2.0545504 -1.0342195
-0.5 2.1355031 -1.0499917
0.5 2.1658626 -1.0586962
-0.5 2.2582312 -1.0362003
0.5 2.2491362 -1.0327829
-0.5 2.3396294 -1.0755322
0.5 2.346591 -1.047426
-0.5 2.4707966 -1.0800644
0.5 2.4315009 -1.0597262
-0.5 2.5627692 -1.0596087
0.5 2.5594025 -1.053331
-0.5 2.66219 -1.0645127
0.5 2.6460598 -1.0489571
-0.5 2.7462108 -1.0601044
0.5 2.7422631 -1.0575256
-0.5 2.8448815 -1.0388241
0.5 2.8622901 -1.0674032
-0.5 2.9540854 -1.0413363
0.5 2.953651 -1.0328875
-0.5 -2.9396715 -0.96212876
0.5 -2.9472594 -0.95311147
-0.5 -2.8480246 -0.9549883
0.5 -2.8464863 -0.95282787
-0.5 -2.7559581 -0.95694607
0.5 -2.7551684 -0.94710982
-0.5 -2.6578271 -0.94461781
0.5 -2.652144 -0.92980063
-0.5 -2.5367353 -0.96595591
0.5 -2.5622952 -0.94677496
-0.5 -2.4531248 -0.94798034
0.5 -2.4670584 -0.96204805
-0.5 -2.3732023 -0.93866622
0.5 -2.3526425 -0.97038954
-0.5 -2.2441244 -0.95385426
0.5 -2.2391763 -0.9393211
-0.5 -2.160434 -0.94686037
0.5 -2.151006 -0.95837218
-0.5 -2.0389509 -0.95197845
0.5 -2.0450847 -0.93905777
-0.5 -1.9282165 -0.95152837
0.5 -1.9386984 -0.94709396
-0.5 -1.846068 -0.95874637
0.5 -1.8454674 -0.92556024
-0.5 -1.7539691 -0.94194382
0.5 -1.7272501 -0.95673722
-0.5 -1.6488652 -0.94533497
0.5 -1.6644471 -0.96055645
-0.5 -1.5543853 -0.95796877
0.5 -1.5350307 -0.95697528
-0.5 -1.4460144 -0.94488728
0.5 -1.4529117 -0.9395805
-0.5 -1.3598287 -0.95688373
0.5 -1.3357809 -0.96325874
-0.5 -1.2576175 -0.96676153
0.5 -1.2579607 -0.94103575
-0.5 -1.1572369 -0.94455498
0.5 -1.1634815 -0.94853187
-0.5 -1.044037 -0.93533349
0.5 -1.0352033 -0.9517256
-0.5 -0.94591331 -0.94261235
0.5 -0.93719941 -0.93627506
-0.5 -0.84756225 -0.97777438
0.5 -0.84389472 -0.95347846
-0.5 -0.77223462 -0.95952207
0.5 -0.73115993 -0.94151562
-0.5 -0.64496744 -0.96958536
0.5 -0.65955967 -0.97383261
-0.5 -0.52649266 -0.95761669
0.5 -0.53593677 -0.93729222
-2.9624646 -0.5 -0.94798219
-2.8490207 -0.5 -0.92675447
-2.7540805 -0.5 -0.94358373
-2.656399 -0.5 -0.95659578
-2.5475895 -0.5 -0.96180129
-2.4473732 -0.5 -0.95705307
-2.346879 -0.5 -0.94322902
-2.2405851 -0.5 -0.94734371
-2.1449769 -0.5 -0.95783669
-2.0554137 -0.5 -0.96136469
-1.9218117 -0.5 -0.95372868
-1.8335289 -0.5 -0.94786835
-1.7574495 -0.5 -0.94247824
-1.6499563 -0.5 -0.96985847
-1.5526453 -0.5 -0.94249362
-1.4340795 -0.5 -0.94444048
-1.3680348 -0.5 -0.94350696
-1.2426643 -0.5 -0.94095755
-1.1562036 -0.5 -0.95178044
-1.0576644 -0.5 -0.95378637
-0.94461346 -0.5 -0.94127631
-0.854339 -0.5 -0.95907891
-0.75596434 -0.5 -0.96550101
-0.63519067 -0.5 -0.93584919
-0.56424838 -0.5 -0.93644094
0.55266398 -0.5 -0.94687587
0.65954852 -0.5 -0.91972166
0.75705743 -0.5 -0.96397376
0.84090161 -0.5 -0.94924718
0.9479897 -0.5 -0.95543069
1.051017 -0.5 -0.94763243
1.1326088 -0.5 -0.94295073
1.2512586 -0.5 -0.94499165
1.358928 -0.5 -0.95999604
1.4800599 -0.5 -0.9729048
1.5454487 -0.5 -0.9560374
1.6552957 -0.5 -0.95892209
1.7550881 -0.5 -0.94716668
1.8436942 -0.5 -0.95838737
1.9617697 -0.5 -0.94389093
2.0368829 -0.5 -0.93008989
2.1500041 -0.5 -0.95294815
2.2601335 -0.5 -0.94423771
2.3350878 -0.5 -0.95486629
2.4635789 -0.5 -0.93713737
2.549171 -0.5 -0.94646424
2.6420462 -0.5 -0.93758047
2.7277019 -0.5 -0.94688398
2.8431578 -0.5 -0.93948632
2.9478276 -0.5 -0.95484507
-2.9451685 0.5 -0.93580896
-2.8729455 0.5 -0.96131361
-2.7332664 0.5 -0.93594104
-2.6545768 0.5 -0.96753246
-2.5460644 0.5 -0.95252454
-2.4589794 0.5 -0.94717491
-2.3416238 0.5 -0.92969066
-2.239727 0.5 -0.94811875
-2.1473026 0.5 -0.95250118
-2.0517616 0.5 -0.9605732
-1.9405285 0.5 -0.94961351
-1.8639522 0.5 -0.94141895
-1.7473243 0.5 -0.95452559
-1.6377218 0.5 -0.95706415
-1.5525508 0.5 -0.96558458
-1.4420545 0.5 -0.95554405
-1.3478711 0.5 -0.95411241
-1.2494287 0.5 -0.95023829
-1.1475827 0.5 -0.97212905
-1.0269759 0.5 -0.96064728
-0.94141668 0.5 -0.93816876
-0.84439224 0.5 -0.95731628
-0.74052918 0.5 -0.9508388
-0.65819567 0.5 -0.96591604
-0.53958476 0.5 -0.96553826
-0.5 0.53275216 -0.93996388
0.54353839 0.51149046 -0.94707084
0.75871539 0.5 -0.96219081
0.83679509 0.5 -0.96520233
0.94135243 0.5 -0.96704745
1.0618503 0.5 -0.93939006
1.1327846 0.5 -0.92977321
1.2379822 0.5 -0.95219582
1.3657448 0.5 -0.94398421
1.4452527 0.5 -0.94390804
1.5486203 0.5 -0.94651055
1.6546283 0.5 -0.94103318
1.7561693 0.5 -0.96225858
1.8537686 0.5 -0.96783435
1.939733 0.5 -0.9619028
2.0489473 0.5 -0.93687373
2.149905 0.5 -0.944812
2.2634103 0.5 -0.94609928
2.3534782 0.5 -0.94783622
2.4409397 0.5 -0.95709419
2.5641546 0.5 -0.95360702
2.6561511 0.5 -0.94849128
2.7496715 0.5 -0.94948256
2.8540461 0.5 -0.93612021
2.9531238 0.5 -0.9372043
-0.5 0.65122956 -0.94901007
0.5 0.64840174 -0.95879447
-0.5 0.76361328 -0.95486367
0.5 0.74883038 -0.95503306
-0.5 0.85548371 -0.94105512
0.5 0.85330772 -0.95869803
-0.5 0.94101226 -0.95289934
0.5 0.9342128 -0.94991332
-0.5 1.0426136 -0.95053059
0.5 1.0393564 -0.94676763
-0.5 1.1272836 -0.95455837
0.5 1.1541806 -0.94291496
-0.5 1.2483765 -0.96394634
0.5 1.2511218 -0.95996243
-0.5 1.335194 -0.93561143
0.5 1.3529222 -0.95365781
-0.5 1.4380815 -0.95338786
0.5 1.4551377 -0.95399612
-0.5 1.5726455 -0.96350181
0.5 1.5550128 -0.95815325
-0.5 1.6411364 -0.9576984
0.5 1.6785412 -0.94302833
-0.5 1.7438717 -0.945871
0.5 1.75186 -0.93853611
-0.5 1.85852 -0.96885586
0.5 1.84331 -0.94413853
-0.5 1.9698937 -0.96817458
0.5 1.9591724 -0.9593671
-0.5 2.0454319 -0.95229882
0.5 2.0528083 -0.94795096
-0.5 2.1440864 -0.95769626
0.5 2.1508195 -0.96874499
-0.5 2.2271521 -0.95588619
0.5 2.2347553 -0.94624299
-0.5 2.3450799 -0.93826884
0.5 2.3689778 -0.94660115
-0.5 2.4515848 -0.94162083
0.5 2.4680886 -0.95798761
-0.5 2.5457413 -0.92883432
0.5 2.5560522 -0.93980807
-0.5 2.6366711 -0.92437106
0.5 2.6507668 -0.95665962
-0.5 2.765892 -0.9397704
0.5 2.7460771 -0.95912343
-0.5 2.8635058 -0.93976951
0.5 2.8337092 -0.93964177
-0.5 2.950624 -0.97811824
0.5 2.9407048 -0.95793641
-0.5 -2.9155283 -0.88779783
0.5 -2.952153 -0.85155123
-0.5 -2.8649147 -0.84385228
0.5 -2.8414035 -0.85455096
-0.5 -2.7444682 -0.86980957
0.5 -2.7655072 -0.84494674
-0.5 -2.6523142 -0.84223604
0.5 -2.6486325 -0.85000944
-0.5 -2.5444098 -0.8528862
0.5 -2.555161 -0.82525969
-0.5 -2.4332151 -0.83750945
0.5 -2.4359326 -0.84418392
-0.5 -2.3470721 -0.83753276
0.5 -2.3601489 -0.872235
-0.5 -2.2411363 -0.83720183
0.5 -2.2496266 -0.84390932
-0.5 -2.1584911 -0.8559432
0.5 -2.1537547 -0.84411019
-0.5 -2.0469379 -0.85827178
0.5 -2.0594995 -0.86267662
-0.5 -1.9464535 -0.83935142
0.5 -1.9623855 -0.85842037
-0.5 -1.8503567 -0.85404336
0.5 -1.8423547 -0.84797621
-0.5 -1.7346443 -0.86825943
0.5 -1.7119734 -0.8484025
-0.5 -1.657077 -0.84861887
0.5 -1.6518568 -0.83776271
-0.5 -1.5636156 -0.84699714
0.5 -1.56221 -0.83507866
-0.5 -1.45265 -0.83800727
0.5 -1.4526039 -0.85722828
-0.5 -1.3427866 -0.84463876
0.5 -1.348236 -0.86366117
-0.5 -1.2654226 -0.86701423
0.5 -1.2349943 -0.85943109
-0.5 -1.165314 -0.85332388
0.5 -1.1504686 -0.8632226
-0.5 -1.04131 -0.84198922
0.5 -1.0330143 -0.85560453
-0.5 -0.96155405 -0.85726815
0.5 -0.96268207 -0.84230435
-0.5 -0.8512646 -0.83199227
0.5 -0.87063938 -0.87193608
-0.5 -0.7467863 -0.82604551
0.5 -0.74225414 -0.8294096
-0.5 -0.65762055 -0.84852833
0.5 -0.65102708 -0.85533434
-0.5 -0.54426491 -0.85165459
0.5 -0.54784638 -0.85716105
-2.9726424 -0.5 -0.8569715
-2.8462188 -0.5 -0.85301524
-2.7447655 -0.5 -0.84705448
-2.6359136 -0.5 -0.88962096
-2.5557404 -0.5 -0.84107941
-2.4422927 -0.5 -0.85028684
-2.3569202 -0.5 -0.85504693
-2.2499084 -0.5 -0.84991199
-2.1490216 -0.5 -0.83305514
-2.0553312 -0.5 -0.84916705
-1.9633514 -0.5 -0.84434193
-1.8559006 -0.5 -0.84034878
-1.7478675 -0.5 -0.83508086
-1.6429572 -0.5 -0.84119982
-1.5560645 -0.5 -0.85215127
-1.4527407 -0.5 -0.84021598
-1.3495047 -0.5 -0.84540415
-1.2310029 -0.5 -0.85837579
-1.1693773 -0.5 -0.84137613
-1.0572735 -0.5 -0.85666859
-0.94795525 -0.5 -0.86828291
-0.8539387 -0.5 -0.86911452
-0.75638837 -0.5 -0.85079706
-0.67183018 -0.5 -0.87233424
-0.559264 -0.5 -0.84772652
0.52909142 -0.5 -0.85747927
0.66475725 -0.5 -0.84239453
0.73982507 -0.5 -0.8544609
0.85937572 -0.5 -0.86087519
0.92436677 -0.5 -0.83261031
1.0479155 -0.5 -0.84632546
1.1295817 -0.5 -0.83832413
1.2486647 -0.5 -0.85613382
1.3490356 -0.5 -0.84215254
1.4547786 -0.5 -0.85747021
1.5611659 -0.5 -0.83303499
1.6387038 -0.5 -0.83767301
1.7638036 -0.5 -0.84361249
1.8458344 -0.5 -0.86646014
1.9457616 -0.5 -0.84359711
2.0549295 -0.5 -0.8315801
2.1502867 -0.5 -0.85610211
2.2492599 -0.5 -0.84133261
2.3488743 -0.5 -0.84044725
2.4461896 -0.5 -0.87959528
2.5470557 -0.5 -0.85413009
2.6471531 -0.5 -0.85163629
2.7414296 -0.5 -0.85218441
2.8595357 -0.5 -0.86567533
2.9455066 -0.5 -0.85903203
-2.9512413 0.5 -0.85568488
-2.8498154 0.5 -0.85217589
-2.7439654 0.5 -0.83892339
-2.641077 0.5 -0.82855415
-2.5488307 0.5 -0.87432146
-2.471746 0.5 -0.85184073
-2.3535502 0.5 -0.87157857
-2.2540302 0.5 -0.86722624
-2.1551495 0.5 -0.82902247
-2.0620916 0.5 -0.84568632
-1.9615812 0.5 -0.86205769
-1.8240179 0.5 -0.83870476
-1.7313938 0.5 -0.8504023
-1.6507365 0.5 -0.8397035
-1.5456179 0.5 -0.84877068
-1.4413463 0.5 -0.84588307
-1.3560171 0.5 -0.83393866
-1.2548403 0.5 -0.8537069
-1.163442 0.5 -0.88438433
-1.0246961 0.5 -0.85408986
-0.96263331 0.5 -0.84455746
-0.85739809 0.5 -0.85782629
-0.73490161 0.5 -0.8530432
-0.6218794 0.5 -0.85292292
-0.55829901 0.5 -0.83533841
-0.5 0.55256748 -0.84082919
0.52864885 0.52397764 -0.84253496
0.64961261 0.5 -0.84274232
0.75269282 0.5 -0.85801226
0.84137005 0.5 -0.86154222
0.94578248 0.5 -0.84798771
1.0457982 0.5 -0.84898335
1.144799 0.5 -0.85063803
1.2377694 0.5 -0.86713016
1.3499393 0.5 -0.84709358
1.4541198 0.5 -0.85677701
1.5688756 0.5 -0.83819914
1.6647781 0.5 -0.83701545
1.7345368 0.5 -0.84698713
1.8482203 0.5 -0.85924023
1.9347407 0.5 -0.83365935
2.0294824 0.5 -0.85663986
2.1725659 0.5 -0.84699523
2.2316179 0.5 -0.85512567
2.3599935 0.5 -0.83851987
2.4533267 0.5 -0.83190501
2.563586 0.5 -0.84889174
2.6742039 0.5 -0.84652728
2.7511451 0.5 -0.85137796
2.8641639 0.5 -0.84746695
2.9333827 0.5 -0.83541405
-0.5 0.66303438 -0.8624357
0.5 0.66710556 -0.85376978
-0.5 0.70935678 -0.86013514
0.5 0.75330323 -0.85823274
-0.5 0.82832378 -0.8564043
0.5 0.82556856 -0.85096264
-0.5 0.96496397 -0.8598367
0.5 0.95064467 -0.85292304
-0.5 1.0542635 -0.85867786
0.5 1.0643188 -0.83876801
-0.5 1.1464087 -0.86202157
0.5 1.1604211 -0.84643203
-0.5 1.2425184 -0.85430115
0.5 1.2562091 -0.84413195
-0.5 1.3355893 -0.84863412
0.5 1.3579462 -0.88847589
-0.5 1.4336435 -0.85684609
-0.5 1.5553241 -0.86042511
0.5 1.5487785 -0.84009153
-0.5 1.6619411 -0.85880548
0.5 1.6408007 -0.8475982
-0.5 1.7435029 -0.85608464
0.5 1.7553142 -0.84083211
-0.5 1.864411 -0.86836374
0.5 1.8701701 -0.85917085
-0.5 1.9514414 -0.8455466
0.5 1.945233 -0.84429342
-0.5 2.0434988 -0.84193665
0.5 2.0548382 -0.8474527
-0.5 2.1585534 -0.85223866
0.5 2.1563632 -0.84832895
-0.5 2.246341 -0.84576678
0.5 2.2460504 -0.84972149
-0.5 2.3299184 -0.86274743
0.5 2.3401487 -0.85346174
-0.5 2.4321473 -0.86069953
0.5 2.4739926 -0.84286666
-0.5 2.5722141 -0.84873819
0.5 2.5378659 -0.84277123
-0.5 2.6483927 -0.8580339
0.5 2.6403196 -0.82860631
-0.5 2.7489338 -0.83315516
0.5 2.7703681 -0.86368686
-0.5 2.8571417 -0.85140556
0.5 2.8511155 -0.84890157
-0.5 2.937371 -0.85724384
0.5 2.9670656 -0.86179829
-0.5 -2.9745526 -0.7242564
0.5 -2.9424806 -0.7645207
-0.5 -2.8456624 -0.7342394
0.5 -2.8565731 -0.74332482
-0.5 -2.7458262 -0.7430523
0.5 -2.7615914 -0.77126598
-0.5 -2.6337261 -0.74117106
0.5 -2.6468649 -0.74764693
-0.5 -2.5487409 -0.74927998
0.5 -2.563786 -0.7659111
-0.5 -2.45155 -0.74216193
0.5 -2.441586 -0.73552525
-0.5 -2.3672001 -0.72580129
0.5 -2.3484459 -0.7597149
-0.5 -2.2412066 -0.74589795
0.5 -2.2453229 -0.75844824
-0.5 -2.1593764 -0.74304199
0.5 -2.1462562 -0.75140572
-0.5 -2.0690377 -0.74960077
0.5 -2.0507419 -0.75424498
-0.5 -1.9304523 -0.76524639
0.5 -1.9455693 -0.76288521
-0.5 -1.8292689 -0.75111246
0.5 -1.8747438 -0.74155879
-0.5 -1.7619381 -0.7454769
0.5 -1.7491682 -0.74769962
-0.5 -1.6509106 -0.74834216
0.5 -1.6567206 -0.74148244
-0.5 -1.5467559 -0.75971597
0.5 -1.5372143 -0.76981032
-0.5 -1.4640352 -0.75504178
0.5 -1.4524959 -0.75086826
-0.5 -1.3528661 -0.72677737
0.5 -1.3427163 -0.75089633
-0.5 -1.2655897 -0.7542057
0.5 -1.2599882 -0.74233311
-0.5 -1.1538914 -0.75723982
0.5 -1.1403369 -0.76862597
-0.5 -1.0508128 -0.75176936
0.5 -1.0343902 -0.74554914
-0.5 -0.95419443 -0.75107384
0.5 -0.9355101 -0.73952943
-0.5 -0.85495198 -0.74509603
0.5 -0.87159073 -0.74918544
-0.5 -0.75099218 -0.77080554
0.5 -0.75964648 -0.73876077
-0.5 -0.65249342 -0.74656552
0.5 -0.66181391 -0.75800729
-0.5 -0.53995371 -0.72960716
0.5 -0.55408037 -0.74834061
-2.9522727 -0.5 -0.75445741
-2.8462803 -0.5 -0.73198378
-2.7432096 -0.5 -0.74938756
-2.6595936 -0.5 -0.72524118
-2.5467231 -0.5 -0.77016437
-2.4368653 -0.5 -0.74109709
-2.3579688 -0.5 -0.7686618
-2.2642324 -0.5 -0.74907988
-2.1588173 -0.5 -0.74201119
-2.0476038 -0.5 -0.73355371
-1.9385494 -0.5 -0.75989765
-1.8439943 -0.5 -0.73764551
-1.7532299 -0.5 -0.73331654
-1.6394101 -0.5 -0.72597539
-1.5527431 -0.5 -0.75331253
-1.4516678 -0.5 -0.76342815
-1.3603301 -0.5 -0.74292767
-1.2378759 -0.5 -0.73502094
-1.1666608 -0.5 -0.72624004
-1.0394651 -0.5 -0.74941385
-0.95739341 -0.5 -0.76396346
-0.85060102 -0.5 -0.75237167
-0.75789267 -0.5 -0.75790459
-0.6504668 -0.5 -0.76074702
-0.54974157 -0.5 -0.76746362
0.55420715 -0.5 -0.76888311
0.62007999 -0.5 -0.73773777
0.7766667 -0.5 -0.75025833
0.85470146 -0.5 -0.76004583
0.9657315 -0.5 -0.76212329
1.0551126 -0.5 -0.7331894
1.1169925 -0.5 -0.724388
1.2347023 -0.5 -0.74561799
1.3357134 -0.5 -0.76070255
1.4420135 -0.5 -0.75566965
1.5416327 -0.5 -0.75733155
1.6417726 -0.5 -0.76814038
1.7733032 -0.5 -0.76692396
1.8405054 -0.5 -0.75093371
1.9410235 -0.5 -0.74116927
2.0462317 -0.5 -0.73526001
2.1674881 -0.5 -0.75045502
2.2512653 -0.5 -0.74284589
2.3212106 -0.5 -0.74326026
2.4508817 -0.5 -0.76370579
2.5588276 -0.5 -0.7664606
2.6358571 -0.5 -0.74171531
2.7482779 -0.5 -0.7560457
2.8300326 -0.5 -0.74968803
2.9427545 -0.5 -0.75515884
-2.9361448 0.5 -0.7214008
-2.8409967 0.5 -0.72768039
-2.7515159 0.5 -0.74738717
-2.6482298 0.5 -0.75544959
-2.5495515 0.5 -0.71890938
-2.4540889 0.5 -0.74671322
-2.3453178 0.5 -0.74886876
-2.2412219 0.5 -0.75780088
-2.1405444 0.5 -0.73955357
-2.0589817 0.5 -0.73013341
-1.9456127 0.5 -0.75594193
-1.8623855 0.5 -0.75950634
-1.7436837 0.5 -0.78132367
-1.6342839 0.5 -0.75451708
-1.5528345 0.5 -0.76019812
-1.4722898 0.5 -0.76723605
-1.3592792 0.5 -0.75496
-1.258377 0.5 -0.75992489
-1.1562668 0.5 -0.75247359
-1.0570163 0.5 -0.76073581
-0.94248807 0.5 -0.75036466
-0.86012608 0.5 -0.74045473
-0.74340016 0.5 -0.75834715
-0.64691317 0.5 -0.73965108
-0.56146514 0.5 -0.74842858
-0.5 0.55650389 -0.74665177
0.51454443 0.5347876 -0.73803067
0.65022725 0.5 -0.73700154
0.76533848 0.5 -0.74114394
0.84661961 0.5 -0.74162889
0.94317359 0.5 -0.73880094
1.0377241 0.5 -0.76211786
1.1490591 0.5 -0.75545222
1.2439615 0.5 -0.75541836
1.3594906 0.5 -0.73105323
1.4584571 0.5 -0.74480295
1.5303977 0.5 -0.72851264
1.6568141 0.5 -0.75626963
1.7340887 0.5 -0.72939515
1.8651726 0.5 -0.73164326
1.9629569 0.5 -0.75348318
2.0475426 0.5 -0.76967031
2.1397316 0.5 -0.74688113
2.2564561 0.5 -0.76746035
2.3365653 0.5 -0.74029249
2.4583821 0.5 -0.74612868
2.5614877 0.5 -0.75232249
2.6314256 0.5 -0.7592423
2.7356765 0.5 -0.73366642
2.8578234 0.5 -0.76145202
2.9337254 0.5 -0.75575221
-0.5 0.65573376 -0.7442705
0.5 0.64497507 -0.73084724
-0.5 0.73482054 -0.76580197
0.5 0.74564397 -0.73908579
-0.5 0.87501168 -0.76100677
0.5 0.87320381 -0.75322372
-0.5 0.95558387 -0.77410865
0.5 0.96455276 -0.73795205
-0.5 1.0328174 -0.72720104
0.5 1.0396615 -0.78669918
-0.5 1.1466186 -0.73820746
0.5 1.1574476 -0.73866242
-0.5 1.2581675 -0.76092088
0.5 1.2690331 -0.74694651
-0.5 1.3611591 -0.7477361
0.5 1.3557663 -0.74737978
-0.5 1.445961 -0.7499305
0.5 1.4369881 -0.73771483
-0.5 1.5600725 -0.75394195
0.5 1.5641127 -0.75453746
-0.5 1.675204 -0.72967273
0.5 1.6342415 -0.7312358
-0.5 1.7505279 -0.73610395
0.5 1.740366 -0.75209224
-0.5 1.8404361 -0.75788939
0.5 1.8625294 -0.76940417
-0.5 1.9458953 -0.7476958
0.5 1.9472409 -0.75220615
-0.5 2.0357683 -0.72861433
0.5 2.0333955 -0.74522537
-0.5 2.1342118 -0.76334882
0.5 2.1709363 -0.7591303
-0.5 2.2645357 -0.74446362
0.5 2.2462316 -0.74742734
-0.5 2.340574 -0.74882996
0.5 2.3749316 -0.73601949
-0.5 2.4486268 -0.74988198
0.5 2.4565814 -0.73352194
-0.5 2.5435565 -0.7513414
0.5 2.5586483 -0.76640457
-0.5 2.6568131 -0.74005473
0.5 2.6349087 -0.74543482
-0.5 2.7464488 -0.74340463
0.5 2.7527449 -0.73834282
-0.5 2.8545909 -0.74394798
0.5 2.8455 -0.76055181
-0.5 2.9434495 -0.74358529
0.5 2.9577129 -0.75277907
-0.5 -2.9401979 -0.64764029
0.5 -2.9721999 -0.62215853
-0.5 -2.8427186 -0.66349715
0.5 -2.8551822 -0.66604441
-0.5 -2.7195044 -0.6592809
0.5 -2.7505558 -0.64485627
-0.5 -2.650979 -0.64989251
0.5 -2.6595082 -0.6457305
-0.5 -2.5389876 -0.63688517
0.5 -2.5464809 -0.65658027
-0.5 -2.4589963 -0.66484189
0.5 -2.438997 -0.6564424
-0.5 -2.3718996 -0.64797509
0.5 -2.3444238 -0.66276515
-0.5 -2.2261143 -0.63547105
0.5 -2.2676327 -0.63747704
-0.5 -2.1490791 -0.65709823
0.5 -2.134203 -0.6608929
-0.5 -2.0685048 -0.65561223
0.5 -2.0581243 -0.63407439
-0.5 -1.9549798 -0.6612429
0.5 -1.9507369 -0.66116524
-0.5 -1.8385402 -0.64669186
0.5 -1.8491561 -0.63804221
-0.5 -1.7409662 -0.65549004
0.5 -1.7488086 -0.67425323
-0.5 -1.6414895 -0.65629029
0.5 -1.6379948 -0.64709097
-0.5 -1.5489844 -0.63279891
0.5 -1.5422994 -0.65215111
-0.5 -1.4642645 -0.6400395
0.5 -1.4466394 -0.65663975
-0.5 -1.3541441 -0.64087397
0.5 -1.3254138 -0.63126874
-0.5 -1.2258561 -0.6290797
0.5 -1.225777 -0.65086126
-0.5 -1.1800883 -0.64657241
0.5 -1.1518656 -0.65530872
-0.5 -1.0533556 -0.65944684
0.5 -1.0474612 -0.647241
-0.5 -0.9566685 -0.65498233
0.5 -0.95932394 -0.6590842
-0.5 -0.86877787 -0.6329841
0.5 -0.8424179 -0.62974024
-0.5 -0.74383736 -0.66553158
0.5 -0.71704215 -0.63308614
-0.5 -0.64964533 -0.65416288
0.5 -0.62665427 -0.65231454
-0.5 -0.54188555 -0.63847268
0.5 -0.53495991 -0.64508951
-2.9453628 -0.5 -0.6536653
-2.8452194 -0.5 -0.63237292
-2.7522268 -0.5 -0.6570431
-2.6550686 -0.5 -0.64569807
-2.5744784 -0.5 -0.65515935
-2.4472518 -0.5 -0.61942184
-2.3550067 -0.5 -0.63904047
-2.2486439 -0.5 -0.65123224
-2.150274 -0.5 -0.65995806
-2.0547364 -0.5 -0.64133257
-1.9542663 -0.5 -0.6371606
-1.8451756 -0.5 -0.6506049
-1.7481515 -0.5 -0.63511312
-1.6514013 -0.5 -0.66585314
-1.54177 -0.5 -0.65631944
-1.4421867 -0.5 -0.67432708
-1.3582866 -0.5 -0.64708841
-1.2516354 -0.5 -0.62700272
-1.1403074 -0.5 -0.64521748
-1.0267389 -0.5 -0.64481139
-0.95359999 -0.5 -0.65299964
-0.85589975 -0.5 -0.64823622
-0.74960494 -0.5 -0.64021647
-0.6479345 -0.5 -0.6425333
-0.55241197 -0.5 -0.64233607
0.55169517 -0.5 -0.65733421
0.64489108 -0.5 -0.67323267
0.74472487 -0.5 -0.66913152
0.85015714 -0.5 -0.64262623
0.96754056 -0.5 -0.65517312
1.057943 -0.5 -0.64832246
1.1529895 -0.5 -0.65960622
1.249164 -0.5 -0.62749994
1.3440795 -0.5 -0.65252775
1.4387553 -0.5 -0.64384568
1.5616167 -0.5 -0.65140569
1.6598606 -0.5 -0.64033079
1.7455527 -0.5 -0.65238124
1.8391432 -0.5 -0.64288288
1.9591043 -0.5 -0.65304238
2.0421586 -0.5 -0.63117462
2.1595597 -0.5 -0.64661402
2.2644656 -0.5 -0.66843039
2.3530285 -0.5 -0.64494216
2.4540081 -0.5 -0.65411174
2.5609367 -0.5 -0.66798246
2.6631114 -0.5 -0.63518333
2.7553816 -0.5 -0.65695906
2.8285069 -0.5 -0.6597237
2.9485774 -0.5 -0.6621083
-2.9566343 0.5 -0.64447445
-2.8425059 0.5 -0.6457873
-2.7270038 0.5 -0.65714222
-2.6392117 0.5 -0.64461648
-2.5541053 0.5 -0.66041696
-2.4479668 0.5 -0.65419239
-2.3533165 0.5 -0.63705635
-2.2466555 0.5 -0.63974166
-2.1567309 0.5 -0.62756014
-2.0484896 0.5 -0.64923954
-1.9420509 0.5 -0.63583332
-1.8577411 0.5 -0.66350782
-1.7558615 0.5 -0.6598677
-1.6521556 0.5 -0.63727754
-1.5465515 0.5 -0.66160089
-1.4421856 0.5 -0.65174925
-1.3465142 0.5 -0.63139045
-1.2560669 0.5 -0.66344303
-1.1365983 0.5 -0.64072788
-1.0388365 0.5 -0.65616363
-0.94920707 0.5 -0.65082181
-0.84588593 0.5 -0.65089738
-0.76009077 0.5 -0.65901953
-0.65589434 0.5 -0.63471407
-0.53724855 0.5 -0.64734715
-0.5 0.55017155 -0.6514914
0.52103871 0.5374676 -0.63865858
0.64142931 0.5 -0.67849106
0.74766022 0.5 -0.65801293
0.84377921 0.5 -0.64429009
0.9421404 0.5 -0.65672714
1.0231284 0.5 -0.66259319
1.1570756 0.5 -0.64756936
1.2467338 0.5 -0.65674233
1.3322936 0.5 -0.65119863
1.4424213 0.5 -0.66027576
1.5395015 0.5 -0.62986112
1.6519283 0.5 -0.68335819
1.7506928 0.5 -0.66318321
1.8723751 0.5 -0.64744002
1.9521357 0.5 -0.65176547
2.0386024 0.5 -0.67163527
2.1508877 0.5 -0.64950168
2.2561049 0.5 -0.66120946
2.3654492 0.5 -0.65237588
2.4768629 0.5 -0.69845015
2.553704 0.5 -0.65935582
2.6181769 0.5 -0.66810036
2.7590542 0.5 -0.65375894
2.8352871 0.5 -0.64025319
2.951344 0.5 -0.6482172
-0.5 0.67842704 -0.66317648
0.5 0.63390779 -0.65757811
-0.5 0.74577862 -0.65039718
0.5 0.7435627 -0.64492267
-0.5 0.84945047 -0.63931823
0.5 0.86053574 -0.66796494
-0.5 0.92999995 -0.65631849
0.5 0.93797255 -0.63555586
-0.5 1.0437191 -0.6524753
0.5 1.0549129 -0.65362966
-0.5 1.1548556 -0.66006356
0.5 1.1222422 -0.63774288
-0.5 1.247503 -0.65829527
0.5 1.2476425 -0.64477855
-0.5 1.3624842 -0.62691772
0.5 1.3658571 -0.64719146
-0.5 1.4521587 -0.648678
0.5 1.4574924 -0.63945431
-0.5 1.5399534 -0.66723299
0.5 1.5537598 -0.64809227
-0.5 1.6544523 -0.64725149
0.5 1.6400397 -0.63405144
-0.5 1.7379315 -0.65264446
0.5 1.7265736 -0.64409399
-0.5 1.8455696 -0.65411031
0.5 1.8389127 -0.63282681
-0.5 1.9649212 -0.64848101
0.5 1.9418199 -0.652013
-0.5 2.0664642 -0.62453204
0.5 2.0794861 -0.65025258
-0.5 2.1286278 -0.64112115
0.5 2.1471577 -0.66096276
-0.5 2.251647 -0.64645249
0.5 2.2554207 -0.66011792
-0.5 2.3767862 -0.66241223
0.5 2.354753 -0.67289305
-0.5 2.4616404 -0.64638543
0.5 2.4585793 -0.64503515
-0.5 2.542661 -0.64219457
0.5 2.526129 -0.63467622
-0.5 2.6657398 -0.62706244
0.5 2.661778 -0.64515549
-0.5 2.7372093 -0.67463851
0.5 2.7417955 -0.62667817
-0.5 2.844413 -0.65903109
0.5 2.8529744 -0.64772964
-0.5 2.9521859 -0.67139214
0.5 2.9452097 -0.61641371
-0.5 -2.9443862 -0.54847896
0.5 -2.9319441 -0.5625295
-0.5 -2.8488288 -0.53517658
0.5 -2.8632865 -0.54446244
-0.5 -2.7569969 -0.56435311
0.5 -2.7301822 -0.5437063
-0.5 -2.6479647 -0.54761046
0.5 -2.6152432 -0.54843694
-0.5 -2.5464518 -0.55794007
0.5 -2.5599988 -0.55311352
-0.5 -2.443809 -0.5424912
0.5 -2.4465714 -0.53392571
-0.5 -2.3357639 -0.55313551
0.5 -2.3529508 -0.54414779
-0.5 -2.2448645 -0.5486058
0.5 -2.2621024 -0.55860585
-0.5 -2.1512046 -0.56690669
0.5 -2.1620142 -0.53525662
-0.5 -2.0447435 -0.54484367
0.5 -2.0548618 -0.56052852
-0.5 -1.9542794 -0.5464288
0.5 -1.9509761 -0.55284905
-0.5 -1.8411556 -0.54446739
0.5 -1.8889911 -0.54655468
-0.5 -1.7440368 -0.54281908
0.5 -1.7808565 -0.5563761
-0.5 -1.6464554 -0.55725652
0.5 -1.6594195 -0.54150677
-0.5 -1.5359657 -0.56666648
0.5 -1.5474375 -0.54755431
-0.5 -1.4375352 -0.56007028
0.5 -1.451655 -0.5523333
-0.5 -1.3568158 -0.53084362
0.5 -1.3486563 -0.56112325
-0.5 -1.2541236 -0.5714485
0.5 -1.266204 -0.53328419
-0.5 -1.1597956 -0.54516113
0.5 -1.1653863 -0.54870993
-0.5 -1.0357467 -0.55685037
0.5 -1.0415577 -0.56577164
-0.5 -0.9586432 -0.56194663
0.5 -0.95859975 -0.55780649
-0.5 -0.84255916 -0.56203175
0.5 -0.85950363 -0.56600797
-0.5 -0.76316124 -0.53942204
0.5 -0.76914155 -0.56098258
-0.5 -0.64266121 -0.55921948
0.5 -0.64554232 -0.53739333
-0.5 -0.52186388 -0.54097921
0.5 -0.55898237 -0.5375036
-2.9640436 -0.5 -0.52761489
-2.8553085 -0.5 -0.52446908
-2.7507749 -0.5 -0.54860312
-2.6458187 -0.5 -0.54724729
-2.5549357 -0.5 -0.53871369
-2.4170213 -0.5 -0.53109372
-2.3416035 -0.5 -0.55526793
-2.2390289 -0.5 -0.54380637
-2.1459756 -0.5 -0.53857565
-2.0430253 -0.5 -0.54418623
-1.9371371 -0.5 -0.55044574
-1.8358659 -0.5 -0.54498482
-1.7491511 -0.5 -0.54936457
-1.6533555 -0.5 -0.55671012
-1.5452005 -0.5 -0.55946082
-1.4345998 -0.5 -0.5297429
-1.3544762 -0.5 -0.53553462
-1.2579328 -0.5 -0.55536252
-1.1323028 -0.5 -0.54545522
-1.0404464 -0.5 -0.52126861
-0.95088059 -0.5 -0.55436927
-0.84341925 -0.5 -0.54679459
-0.74886668 -0.5 -0.56222904
-0.64096111 -0.5 -0.54348493
-0.5479573 -0.5 -0.55846965
0.54521042 -0.5 -0.5427416
0.64129561 -0.5 -0.55523539
0.77060914 -0.5 -0.53734404
0.85473043 -0.5 -0.57268065
0.95417023 -0.5 -0.55129987
1.0455996 -0.5 -0.57098377
1.14211 -0.5 -0.56183177
1.2550324 -0.5 -0.55732411
1.3488102 -0.5 -0.55031097
1.472751 -0.5 -0.53589958
1.558195 -0.5 -0.55527622
1.6529909 -0.5 -0.53527206
1.7589737 -0.5 -0.552993
1.854113 -0.5 -0.54454643
1.9231716 -0.5 -0.57078928
2.0712039 -0.5 -0.5615744
2.1320455 -0.5 -0.55134654
2.238111 -0.5 -0.55225462
2.369653 -0.5 -0.55227774
2.4574656 -0.5 -0.558685
2.540489 -0.5 -0.54510057
2.6590989 -0.5 -0.5447498
2.7498703 -0.5 -0.57003361
2.857466 -0.5 -0.57709366
2.9523866 -0.5 -0.55095017
-2.9323914 0.5 -0.54687721
-2.8614454 0.5 -0.54264498
-2.7487509 0.5 -0.55180931
-2.6720624 0.5 -0.55001616
-2.5545416 0.5 -0.53734839
-2.4613309 0.5 -0.55182803
-2.3439119 0.5 -0.54776931
-2.2521491 0.5 -0.53460974
-2.1492119 0.5 -0.55558801
-2.0461707 0.5 -0.56132567
-1.9616162 0.5 -0.57275677
-1.869446 0.5 -0.54612923
-1.7393337 0.5 -0.55850405
-1.6457192 0.5 -0.57481724
-1.5362327 0.5 -0.54981643
-1.4496118 0.5 -0.54877532
-1.3519411 0.5 -0.56362587
-1.260249 0.5 -0.55699456
-1.1414818 0.5 -0.56372499
-1.0538807 0.5 -0.5508948
-0.95636499 0.5 -0.55205071
-0.85872424 0.5 -0.53115022
-0.72045761 0.5 -0.54922426
-0.65269309 0.5 -0.55918771
-0.54055309 0.5 -0.55783254
-0.5 0.54338557 -0.56471252
0.52011353 0.52752858 -0.54066372
0.65672666 0.5 -0.55995142
0.74622416 0.5 -0.55831921
0.85836822 0.5 -0.55372328
0.96480173 0.5 -0.55101687
1.0717679 0.5 -0.55467647
1.1527174 0.5 -0.56318271
1.2531255 0.5 -0.56439555
1.3534437 0.5 -0.52639139
1.4511609 0.5 -0.56030166
1.544045 0.5 -0.54406124
1.6403425 0.5 -0.54779434
1.7586317 0.5 -0.5636127
1.8625849 0.5 -0.55455661
1.9471401 0.5 -0.53442496
2.0350561 0.5 -0.57238191
2.1485734 0.5 -0.55792671
2.2464695 0.5 -0.54052711
2.3623474 0.5 -0.55099517
2.4441216 0.5 -0.54509568
2.558322 0.5 -0.5474363
2.6620901 0.5 -0.55098736
2.7469609 0.5 -0.57425857
2.8673532 0.5 -0.53692168
2.9572976 0.5 -0.54620826
-0.5 0.63648748 -0.55678195
0.5 0.65986753 -0.54662532
-0.5 0.76481253 -0.53220308
0.5 0.75687313 -0.55645478
-0.5 0.84676582 -0.5258671
0.5 0.83688563 -0.51930296
-0.5 0.95758981 -0.5652163
0.5 0.94365644 -0.5724526
-0.5 1.0617746 -0.57058245
0.5 1.040221 -0.54577476
-0.5 1.1414107 -0.56156921
0.5 1.1560338 -0.54559499
-0.5 1.2458379 -0.55725306
0.5 1.2506255 -0.55002308
-0.5 1.3363161 -0.55474794
0.5 1.3631865 -0.54031593
-0.5 1.4517159 -0.5588904
0.5 1.4650009 -0.55482256
-0.5 1.5359913 -0.54201943
0.5 1.5306069 -0.5359264
-0.5 1.6260033 -0.54693574
0.5 1.6430089 -0.53624803
-0.5 1.7674145 -0.545744
0.5 1.7444154 -0.55069143
-0.5 1.815032 -0.54787374
0.5 1.8539041 -0.55446631
-0.5 1.9530256 -0.55388343
0.5 1.9536424 -0.55279899
-0.5 2.0511909 -0.54833901
0.5 2.0537302 -0.55335629
-0.5 2.1548188 -0.55646825
0.5 2.1494443 -0.53574586
-0.5 2.2751579 -0.55771172
0.5 2.2421927 -0.54243958
-0.5 2.3612723 -0.54749733
0.5 2.335052 -0.54312015
-0.5 2.4390972 -0.569902
0.5 2.4552989 -0.55886674
-0.5 2.5428371 -0.55608451
0.5 2.5607548 -0.55208087
-0.5 2.6317079 -0.54942447
0.5 2.6454539 -0.55108976
-0.5 2.7497025 -0.53234684
0.5 2.7549677 -0.5465126
-0.5 2.8430967 -0.56967735
0.5 2.8520677 -0.55611509
-0.5 2.9490135 -0.56003469
0.5 2.9646583 -0.55529058
-0.5 -2.9629214 -0.46799526
0.5 -2.9479873 -0.45257089
-0.5 -2.8499024 -0.45591685
0.5 -2.8525932 -0.43779486
-0.5 -2.7414045 -0.45449448
0.5 -2.7485657 -0.46365872
-0.5 -2.6396878 -0.43624386
0.5 -2.6481023 -0.44107011
-0.5 -2.5475962 -0.46590927
0.5 -2.5432947 -0.45256552
-0.5 -2.4707594 -0.4631733
0.5 -2.4565024 -0.43361136
-0.5 -2.345088 -0.44341102
0.5 -2.3500865 -0.46271327
-0.5 -2.2303762 -0.43152353
0.5 -2.2466938 -0.46031624
-0.5 -2.1322563 -0.45512789
0.5 -2.1403792 -0.43108752
-0.5 -2.0422699 -0.43684098
0.5 -2.0297339 -0.45328966
-0.5 -1.9450226 -0.43557468
0.5 -1.9552166 -0.43817317
-0.5 -1.8558068 -0.45871633
0.5 -1.8677288 -0.45850888
-0.5 -1.7539887 -0.44811499
0.5 -1.7446456 -0.44933119
-0.5 -1.6545571 -0.45833611
0.5 -1.6601856 -0.45265484
-0.5 -1.5561856 -0.43234968
0.5 -1.5384881 -0.45270324
-0.5 -1.4439812 -0.4390997
0.5 -1.4448503 -0.45221865
-0.5 -1.3263426 -0.43742582
0.5 -1.3680755 -0.45827055
-0.5 -1.2558409 -0.46957541
0.5 -1.2519679 -0.44617301
-0.5 -1.1509503 -0.45587587
0.5 -1.1657014 -0.46086574
-0.5 -1.0526558 -0.46516287
0.5 -1.0718763 -0.44763994
-0.5 -0.95022386 -0.46337199
0.5 -0.93416953 -0.46534848
-0.5 -0.86546344 -0.42655891
0.5 -0.84595138 -0.45671457
-0.5 -0.73456109 -0.45980608
0.5 -0.74852329 -0.43966284
-0.5 -0.6439845 -0.44892633
0.5 -0.64686632 -0.44383091
-0.5 -0.54117209 -0.46327424
0.5 -0.53720367 -0.43442571
-2.9473479 -0.5 -0.46047375
-2.847177 -0.5 -0.4665094
-2.7502129 -0.5 -0.4567349
-2.6617134 -0.5 -0.44764364
-2.5377879 -0.5 -0.44865644
-2.4882066 -0.5 -0.44062802
-2.3522983 -0.5 -0.44044733
-2.2582324 -0.5 -0.45594433
-2.1351991 -0.5 -0.44627857
-2.0306587 -0.5 -0.46405417
-1.9707223 -0.5 -0.4353058
-1.8533725 -0.5 -0.45771471
-1.6506379 -0.5 -0.44632727
-1.5495747 -0.5 -0.44002232
-1.4449059 -0.5 -0.44685236
-1.3430315 -0.5 -0.47624567
-1.2488757 -0.5 -0.43115479
-1.143523 -0.5 -0.45054659
-1.0391129 -0.5 -0.44665802
-0.95375901 -0.5 -0.45441452
-0.86337906 -0.5 -0.43743852
-0.74433279 -0.5 -0.44123003
-0.654145 -0.5 -0.45925611
-0.56308746 -0.5 -0.44389015
0.58264446 -0.5 -0.46775082
0.63201809 -0.5 -0.4358781
0.74116772 -0.5 -0.42956293
0.86034298 -0.5 -0.44099814
0.97856432 -0.5 -0.43896857
1.0740522 -0.5 -0.45295584
1.1508982 -0.5 -0.46927714
1.2160451 -0.5 -0.45292234
1.3559799 -0.5 -0.43960193
1.4365536 -0.5 -0.43442515
1.5380181 -0.5 -0.45346293
